# This PCD file was generated using the MATLAB® pcwrite function
# from Computer Vision Toolbox®.
# .PCD v.7 - Point Cloud Data file format
VERSION .7
FIELDS x y z
SIZE 8 8 8
TYPE F F F
COUNT 1 1 1
WIDTH 794
HEIGHT 1
VIEWPOINT 0 0 0 1 0 0 0
POINTS 794
DATA ascii
34.369999999999997 -101.293999999999997 1032.808999999999969
34.915999999999997 -101.316000000000003 1032.714999999999918
35.527000000000001 -101.272000000000006 1032.583000000000084
36.072000000000003 -101.293000000000006 1032.474999999999909
36.683000000000000 -101.247000000000000 1032.320999999999913
37.225000000000001 -101.263999999999996 1032.165999999999940
37.834000000000003 -101.213999999999999 1031.967000000000098
38.374000000000002 -101.224999999999994 1031.761999999999944
38.979999999999997 -101.164000000000001 1031.481999999999971
39.517000000000003 -101.168999999999997 1031.240000000000009
40.122000000000000 -101.108000000000004 1030.934999999999945
40.658999999999999 -101.117000000000004 1030.709000000000060
0.011000000000000 -101.335999999999999 1039.217000000000098
41.305999999999997 -100.531000000000006 1031.681000000000040
41.889000000000003 -100.585999999999999 1031.513999999999896
42.454000000000001 -100.500000000000000 1031.311999999999898
43.037999999999997 -100.552999999999997 1031.153000000000020
43.603999999999999 -100.466999999999999 1031.000000000000000
44.189999999999998 -100.528000000000006 1030.910000000000082
44.753999999999998 -100.438999999999993 1030.723999999999933
45.340000000000003 -100.500000000000000 1030.603000000000065
45.901000000000003 -100.406999999999996 1030.380000000000109
46.482999999999997 -100.456000000000003 1030.165999999999940
47.042000000000002 -100.363000000000000 1029.928000000000111
47.624000000000002 -100.415000000000006 1029.721000000000004
-0.574000000000000 -100.707999999999998 1038.748000000000047
48.247999999999998 -99.921999999999997 1030.648999999999887
48.783000000000001 -99.933000000000007 1030.443999999999960
49.390999999999998 -99.879999999999995 1030.224999999999909
49.926000000000002 -99.894000000000005 1030.039999999999964
50.533000000000001 -99.843000000000004 1029.811999999999898
51.067999999999998 -99.858000000000004 1029.638999999999896
51.674999999999997 -99.804000000000002 1029.412000000000035
52.209000000000003 -99.819000000000003 1029.239000000000033
52.814999999999998 -99.765000000000001 1029.002999999999929
53.348999999999997 -99.780000000000001 1028.844000000000051
53.956000000000003 -99.727999999999994 1028.615000000000009
54.490000000000002 -99.744000000000000 1028.459000000000060
-0.560000000000000 -99.891000000000005 1037.096000000000004
55.131000000000000 -99.132999999999996 1029.182000000000016
55.720999999999997 -99.191000000000003 1029.077999999999975
56.274000000000001 -99.100999999999999 1028.864000000000033
56.863000000000000 -99.159999999999997 1028.740999999999985
57.417000000000002 -99.069999999999993 1028.542999999999893
58.005000000000003 -99.128000000000000 1028.405999999999949
58.558000000000000 -99.040999999999997 1028.204999999999927
59.146000000000001 -99.096999999999994 1028.053000000000111
59.698000000000000 -99.009000000000000 1027.861000000000104
60.283999999999999 -99.061999999999998 1027.688000000000102
60.838000000000001 -98.975999999999999 1027.525000000000091
61.426000000000002 -99.031999999999996 1027.377999999999929
-1.179000000000000 -99.197999999999993 1034.926999999999907
62.049999999999997 -98.525000000000006 1028.136999999999944
62.579999999999998 -98.539000000000001 1027.961999999999989
63.191000000000003 -98.494000000000000 1027.808999999999969
63.719999999999999 -98.509000000000000 1027.633000000000038
64.329999999999998 -98.463999999999999 1027.478000000000065
64.858000000000004 -98.477000000000004 1027.291999999999916
65.466999999999999 -98.429000000000002 1027.116999999999962
65.992999999999995 -98.441999999999993 1026.920000000000073
66.600999999999999 -98.393000000000001 1026.726000000000113
67.126000000000005 -98.403999999999996 1026.525000000000091
67.733999999999995 -98.355999999999995 1026.339999999999918
68.260000000000005 -98.369000000000000 1026.153000000000020
-1.151000000000000 -98.451999999999998 1033.538999999999987
68.896000000000001 -97.745000000000005 1026.718000000000075
69.480999999999995 -97.793000000000006 1026.489000000000033
70.027000000000001 -97.706000000000003 1026.321999999999889
70.616000000000000 -97.757999999999996 1026.134000000000015
71.161000000000001 -97.674999999999997 1025.976000000000113
71.751999999999995 -97.730999999999995 1025.814000000000078
72.298000000000002 -97.649000000000001 1025.671000000000049
72.888000000000005 -97.703999999999994 1025.512999999999920
73.433000000000007 -97.620000000000005 1025.359999999999900
74.024000000000001 -97.674000000000007 1025.201000000000022
74.567999999999998 -97.591999999999999 1025.053000000000111
75.158000000000001 -97.646000000000001 1024.892000000000053
-1.731000000000000 -97.694999999999993 1031.728000000000065
75.745000000000005 -97.079999999999998 1025.009000000000015
76.269000000000005 -97.096999999999994 1024.858999999999924
76.882000000000005 -97.052999999999997 1024.736000000000104
77.408000000000001 -97.072000000000003 1024.609999999999900
78.021000000000001 -97.031999999999996 1024.506000000000085
78.549000000000007 -97.052999999999997 1024.405999999999949
79.162000000000006 -97.013000000000005 1024.303000000000111
79.688000000000002 -97.034000000000006 1024.185999999999922
80.302000000000007 -96.994000000000000 1024.084000000000060
80.825999999999993 -97.012000000000000 1023.956000000000017
81.438000000000002 -96.971000000000004 1023.823999999999955
81.957999999999998 -96.988000000000000 1023.664999999999964
82.569000000000003 -96.941000000000003 1023.505999999999972
-1.716000000000000 -96.912000000000006 1030.356999999999971
83.159999999999997 -96.376999999999995 1023.679999999999950
83.694000000000003 -96.293000000000006 1023.500000000000000
84.286000000000001 -96.346999999999994 1023.312999999999988
84.819999999999993 -96.263999999999996 1023.145999999999958
85.412000000000006 -96.313999999999993 1022.956999999999994
85.945999999999998 -96.228999999999999 1022.789999999999964
86.537999999999997 -96.281000000000006 1022.610000000000014
87.072000000000003 -96.198999999999998 1022.452999999999975
87.665000000000006 -96.251999999999995 1022.288999999999987
88.197000000000003 -96.168999999999997 1022.124000000000024
88.793000000000006 -96.225999999999999 1021.977999999999952
89.328000000000003 -96.144000000000005 1021.844000000000051
-2.328000000000000 -96.195999999999998 1027.838999999999942
89.900999999999996 -95.680000000000007 1021.975999999999999
90.516000000000005 -95.641000000000005 1021.884999999999991
91.037999999999997 -95.662999999999997 1021.788999999999987
91.655000000000001 -95.626999999999995 1021.712999999999965
92.177999999999997 -95.650999999999996 1021.630999999999972
92.793999999999997 -95.611999999999995 1021.544999999999959
93.316999999999993 -95.635999999999996 1021.461999999999989
93.932000000000002 -95.597999999999999 1021.365999999999985
94.453000000000003 -95.620000000000005 1021.267000000000053
95.067999999999998 -95.578999999999994 1021.169999999999959
95.587999999999994 -95.599999999999994 1021.065000000000055
96.204999999999998 -95.561000000000007 1020.980000000000018
-2.299000000000000 -95.411000000000001 1025.954999999999927
96.802000000000007 -95.007000000000005 1021.217999999999961
97.334000000000003 -94.932000000000002 1021.123000000000047
97.938000000000002 -94.991000000000000 1021.028999999999996
98.469999999999999 -94.915000000000006 1020.931000000000040
99.072000000000003 -94.974000000000004 1020.833999999999946
99.602999999999994 -94.894000000000005 1020.719000000000051
100.203000000000003 -94.950000000000003 1020.589000000000055
100.730999999999995 -94.873999999999995 1020.467999999999961
101.328999999999994 -94.930000000000007 1020.312999999999988
101.855000000000004 -94.849999999999994 1020.182000000000016
102.453000000000003 -94.903000000000006 1020.018000000000029
102.977000000000004 -94.823999999999998 1019.878000000000043
-2.871000000000000 -94.587000000000003 1023.176000000000045
103.572999999999993 -94.373999999999995 1020.193999999999960
104.182000000000002 -94.328999999999994 1020.027000000000044
104.688000000000002 -94.341999999999999 1019.813999999999965
105.293000000000006 -94.293999999999997 1019.615999999999985
105.795000000000002 -94.304000000000002 1019.381999999999948
106.399000000000001 -94.251000000000005 1019.168999999999983
106.899000000000001 -94.257999999999996 1018.918000000000006
107.501000000000005 -94.207999999999998 1018.691000000000031
108.003000000000000 -94.218999999999994 1018.462999999999965
108.605999999999995 -94.170000000000002 1018.251999999999953
109.106999999999999 -94.180000000000007 1018.024999999999977
109.709999999999994 -94.128000000000000 1017.817000000000007
-2.855000000000000 -93.879000000000005 1022.606999999999971
110.292000000000002 -93.561000000000007 1017.899999999999977
110.799000000000007 -93.462999999999994 1017.635999999999967
111.385999999999996 -93.495999999999995 1017.317000000000007
111.881000000000000 -93.408000000000001 1016.996999999999957
112.465999999999994 -93.456999999999994 1016.591000000000008
112.947000000000003 -93.346000000000004 1016.131999999999948
113.524000000000001 -93.373999999999995 1015.640999999999963
113.998999999999995 -93.263000000000005 1015.211000000000013
114.578000000000003 -93.296999999999997 1014.759999999999991
115.058000000000007 -93.191999999999993 1014.394999999999982
115.644000000000005 -93.230999999999995 1014.030999999999949
116.134000000000000 -93.131000000000000 1013.779999999999973
116.730999999999995 -93.174999999999997 1013.515999999999963
-3.465000000000000 -93.272999999999996 1021.292000000000030
117.268000000000001 -92.572000000000003 1013.215000000000032
117.771000000000001 -92.591999999999999 1013.080000000000041
118.385000000000005 -92.555999999999997 1012.960000000000036
118.894000000000005 -92.582999999999998 1012.875000000000000
119.510999999999996 -92.537999999999997 1012.793000000000006
120.031999999999996 -92.563000000000002 1012.715000000000032
120.634000000000000 -92.519000000000005 1012.595000000000027
121.153999999999996 -92.546999999999997 1012.465000000000032
121.756000000000000 -92.507999999999996 1012.390999999999963
122.278999999999996 -92.533000000000001 1012.240000000000009
122.869000000000000 -92.483999999999995 1012.115999999999985
123.385000000000005 -92.501000000000005 1011.918000000000006
-3.999000000000000 -92.537000000000006 1020.618000000000052
123.831999999999994 -91.765000000000001 1011.304999999999950
124.445999999999998 -91.808999999999997 1010.986999999999966
124.951999999999998 -91.695999999999998 1010.792000000000030
125.546000000000006 -91.777000000000001 1010.620000000000005
126.034999999999997 -91.691000000000003 1010.427000000000021
126.632999999999996 -91.736999999999995 1010.162000000000035
127.128000000000000 -91.656999999999996 1010.032000000000039
127.730000000000004 -91.701999999999998 1009.793999999999983
128.229999999999990 -91.622000000000000 1009.706999999999994
128.864000000000004 -91.700999999999993 1009.722999999999956
129.378999999999991 -91.635999999999996 1009.753000000000043
130.013000000000005 -91.722999999999999 1009.764999999999986
-4.008000000000000 -91.897000000000006 1019.174999999999955
130.586999999999989 -91.126000000000005 1009.515999999999963
131.070999999999998 -91.149000000000001 1009.509000000000015
131.698000000000008 -91.108000000000004 1009.552999999999997
132.210000000000008 -91.144000000000005 1009.535999999999945
132.844999999999999 -91.123999999999995 1009.576000000000022
133.364000000000004 -91.165000000000006 1009.615999999999985
133.984000000000009 -91.123999999999995 1009.541000000000054
134.502999999999986 -91.152000000000001 1009.482999999999947
135.114000000000004 -91.114000000000004 1009.432000000000016
135.639000000000010 -91.143000000000001 1009.384000000000015
136.241000000000014 -91.096000000000004 1009.313999999999965
136.758000000000010 -91.123999999999995 1009.241999999999962
-4.574000000000000 -91.164000000000001 1017.360999999999990
137.276999999999987 -90.439999999999998 1009.028000000000020
137.899000000000001 -90.507000000000005 1008.913999999999987
138.389999999999986 -90.421999999999997 1008.811000000000035
139.010999999999996 -90.477000000000004 1008.693999999999960
139.503999999999991 -90.403999999999996 1008.600999999999999
140.131000000000000 -90.471000000000004 1008.517000000000053
140.621000000000009 -90.388999999999996 1008.423999999999978
141.253999999999991 -90.453000000000003 1008.379999999999995
141.744000000000000 -90.376000000000005 1008.294999999999959
142.370000000000005 -90.438000000000002 1008.188999999999965
142.860000000000014 -90.373999999999995 1008.095000000000027
143.478000000000009 -90.436000000000007 1007.946000000000026
-4.592000000000000 -90.507999999999996 1016.053999999999974
144.020000000000010 -89.843999999999994 1007.758000000000038
144.527999999999992 -89.850999999999999 1007.543999999999983
145.104000000000013 -89.793000000000006 1007.354000000000042
145.615000000000009 -89.819000000000003 1007.158999999999992
146.193999999999988 -89.778999999999996 1006.985999999999990
146.703000000000003 -89.805999999999997 1006.835000000000036
147.288000000000011 -89.754000000000005 1006.668999999999983
147.795999999999992 -89.771000000000001 1006.562000000000012
148.397999999999996 -89.721999999999994 1006.452999999999975
148.907000000000011 -89.744000000000000 1006.349000000000046
149.510999999999996 -89.704999999999998 1006.258000000000038
150.030000000000001 -89.739999999999995 1006.178999999999974
150.631000000000000 -89.703999999999994 1006.125999999999976
-5.116000000000000 -89.664000000000001 1014.152000000000044
151.156000000000006 -89.113000000000000 1005.836999999999989
151.646999999999991 -89.040000000000006 1005.793000000000006
152.283999999999992 -89.105999999999995 1005.753000000000043
152.770999999999987 -89.025000000000006 1005.690000000000055
153.411000000000001 -89.090000000000003 1005.659999999999968
153.895000000000010 -89.016000000000005 1005.586999999999989
154.537000000000006 -89.088999999999999 1005.561000000000035
155.019000000000005 -89.016000000000005 1005.476999999999975
155.643000000000001 -89.072999999999993 1005.331000000000017
156.115000000000009 -88.989999999999995 1005.193999999999960
156.733000000000004 -89.045000000000002 1005.017000000000053
157.219999999999999 -88.974999999999994 1004.975999999999999
-5.126000000000000 -89.079999999999998 1013.278000000000020
157.776999999999987 -88.480999999999995 1004.624000000000024
158.355999999999995 -88.433000000000007 1004.475999999999999
158.878999999999991 -88.456000000000003 1004.383000000000038
159.461999999999989 -88.409999999999997 1004.259000000000015
159.990000000000009 -88.447000000000003 1004.201000000000022
160.584000000000003 -88.412999999999997 1004.144999999999982
161.116999999999990 -88.447999999999993 1004.124000000000024
161.707999999999998 -88.403999999999996 1004.049999999999955
162.219999999999999 -88.427999999999997 1003.938999999999965
162.813999999999993 -88.382000000000005 1003.842999999999961
163.326999999999998 -88.403000000000006 1003.740000000000009
163.912000000000006 -88.358999999999995 1003.587999999999965
-5.689000000000000 -88.378000000000000 1011.836000000000013
164.425000000000011 -87.772999999999996 1003.260999999999967
164.876000000000005 -87.686999999999998 1003.034999999999968
165.494000000000000 -87.736000000000004 1002.836999999999989
165.949000000000012 -87.644000000000005 1002.642000000000053
166.572000000000003 -87.694000000000003 1002.472999999999956
167.033999999999992 -87.613000000000000 1002.323999999999955
167.656000000000006 -87.673000000000002 1002.139999999999986
168.123999999999995 -87.600999999999999 1002.030999999999949
168.759999999999991 -87.665999999999997 1001.940000000000055
169.229000000000013 -87.593999999999994 1001.844000000000051
169.871000000000009 -87.658000000000001 1001.785999999999945
170.340000000000003 -87.581000000000003 1001.695000000000050
-5.707000000000000 -87.763999999999996 1010.899000000000001
170.923000000000002 -87.091999999999999 1001.486999999999966
171.508000000000010 -87.049999999999997 1001.388000000000034
172.009999999999991 -87.079999999999998 1001.287000000000035
172.616000000000014 -87.040000000000006 1001.219000000000051
173.102000000000004 -87.064999999999998 1001.160999999999945
173.724999999999994 -87.036000000000001 1001.134000000000015
174.209000000000003 -87.070999999999998 1001.114000000000033
174.847000000000008 -87.037999999999997 1001.105999999999995
175.342000000000013 -87.060000000000002 1001.128000000000043
175.986999999999995 -87.025999999999996 1001.173000000000002
176.500000000000000 -87.063999999999993 1001.207999999999970
177.151000000000010 -87.049000000000007 1001.296000000000049
-6.230000000000000 -86.983000000000004 1009.633000000000038
177.725999999999999 -86.491000000000000 1001.390999999999963
178.247000000000014 -86.442999999999998 1001.561000000000035
178.926999999999992 -86.525000000000006 1001.720000000000027
179.447000000000003 -86.483000000000004 1001.908999999999992
180.121000000000009 -86.557000000000002 1002.004999999999995
180.615000000000009 -86.495000000000005 1002.076000000000022
181.275000000000006 -86.557000000000002 1002.089000000000055
181.758000000000010 -86.492000000000004 1002.091000000000008
182.400000000000006 -86.552999999999997 1002.014999999999986
182.865000000000009 -86.474999999999994 1001.900999999999954
183.488000000000000 -86.522000000000006 1001.735999999999990
183.941000000000003 -86.442999999999998 1001.562999999999988
-6.240000000000000 -86.409000000000006 1008.811000000000035
184.562999999999988 -86.006000000000000 1001.802999999999997
185.164999999999992 -85.962999999999994 1001.625999999999976
185.639999999999986 -85.978999999999999 1001.475999999999999
186.250000000000000 -85.933000000000007 1001.359000000000037
186.742999999999995 -85.954999999999998 1001.283999999999992
187.369000000000000 -85.923000000000002 1001.248000000000047
187.878999999999991 -85.962999999999994 1001.265999999999963
188.520999999999987 -85.947000000000003 1001.316000000000031
189.037000000000006 -85.991000000000000 1001.370999999999981
189.675999999999988 -85.959000000000003 1001.402000000000044
190.185000000000002 -85.986999999999995 1001.418999999999983
190.814999999999998 -85.953000000000003 1001.400999999999954
191.307999999999993 -85.977999999999994 1001.331000000000017
-6.800000000000000 -85.727999999999994 1007.544999999999959
191.807999999999993 -85.298000000000002 1001.081000000000017
192.431000000000012 -85.349000000000004 1000.934999999999945
192.895999999999987 -85.278999999999996 1000.817999999999984
193.520999999999987 -85.331999999999994 1000.681000000000040
193.992999999999995 -85.265000000000001 1000.601999999999975
194.629999999999995 -85.323999999999998 1000.525999999999954
195.113000000000000 -85.262000000000000 1000.509999999999991
195.764000000000010 -85.323999999999998 1000.500999999999976
196.260999999999996 -85.262000000000000 1000.557000000000016
196.921999999999997 -85.325000000000003 1000.597999999999956
197.419999999999987 -85.266000000000005 1000.666000000000054
198.078000000000003 -85.331999999999994 1000.687999999999988
-6.817000000000000 -85.123000000000005 1006.687999999999988
198.700999999999993 -84.790000000000006 1000.969000000000051
199.211999999999989 -84.826999999999998 1001.000999999999976
199.848000000000013 -84.798000000000002 1001.006999999999948
200.342000000000013 -84.828999999999994 1000.951000000000022
200.961000000000013 -84.793000000000006 1000.875999999999976
201.441000000000003 -84.816000000000003 1000.750000000000000
202.050000000000011 -84.774000000000001 1000.621999999999957
202.521999999999991 -84.790999999999997 1000.457999999999970
203.125000000000000 -84.748000000000005 1000.302999999999997
203.593999999999994 -84.766999999999996 1000.125999999999976
204.193000000000012 -84.721999999999994 999.952999999999975
204.659999999999997 -84.739999999999995 999.770999999999958
-7.336000000000000 -84.340999999999994 1005.309999999999945
205.275000000000006 -84.108000000000004 1000.121999999999957
205.888000000000005 -84.153000000000006 999.908000000000015
206.335000000000008 -84.078000000000003 999.741999999999962
206.951999999999998 -84.125000000000000 999.543999999999983
207.406000000000006 -84.055000000000007 999.412000000000035
208.031000000000006 -84.105999999999995 999.253000000000043
208.485999999999990 -84.034999999999997 999.133000000000038
209.111999999999995 -84.084999999999994 998.977999999999952
209.566000000000003 -84.012000000000000 998.860000000000014
210.193999999999988 -84.063000000000002 998.706999999999994
210.643000000000001 -83.992000000000004 998.570000000000050
211.265999999999991 -84.040000000000006 998.394999999999982
-7.344000000000000 -83.757000000000005 1004.289999999999964
211.890999999999991 -83.497000000000000 998.673999999999978
212.355999999999995 -83.516000000000005 998.491999999999962
212.957999999999998 -83.472999999999999 998.337999999999965
213.423000000000002 -83.492000000000004 998.155999999999949
214.024000000000001 -83.447999999999993 998.004000000000019
214.489000000000004 -83.465000000000003 997.822999999999979
215.087999999999994 -83.421000000000006 997.659999999999968
215.552999999999997 -83.439999999999998 997.484000000000037
216.151999999999987 -83.394999999999996 997.320000000000050
216.615000000000009 -83.412999999999997 997.139000000000010
217.211999999999989 -83.367999999999995 996.965000000000032
217.675000000000011 -83.387000000000000 996.785999999999945
-7.900000000000000 -83.081000000000003 1003.022000000000048
218.260999999999996 -82.747000000000000 997.008000000000038
218.884999999999991 -82.795000000000002 996.828999999999951
219.328000000000003 -82.724000000000004 996.692999999999984
219.956999999999994 -82.774000000000001 996.538000000000011
220.401999999999987 -82.703000000000003 996.412000000000035
221.033999999999992 -82.751999999999995 996.263000000000034
221.478000000000009 -82.682000000000002 996.139000000000010
222.109000000000009 -82.731999999999999 995.986999999999966
222.551999999999992 -82.662000000000006 995.861999999999966
223.181999999999988 -82.712000000000003 995.702999999999975
223.622000000000014 -82.640000000000001 995.570000000000050
224.252000000000010 -82.688999999999993 995.408000000000015
224.689999999999998 -82.617999999999995 995.267000000000053
-7.913000000000000 -82.457999999999998 1001.868000000000052
225.323000000000008 -82.161000000000001 995.436000000000035
225.925999999999988 -82.117999999999995 995.291000000000054
226.393000000000001 -82.138999999999996 995.140999999999963
226.995000000000005 -82.096999999999994 994.996999999999957
227.461000000000013 -82.119000000000000 994.846999999999980
228.063999999999993 -82.075999999999993 994.703999999999951
228.530000000000001 -82.096999999999994 994.554999999999950
229.133999999999986 -82.055000000000007 994.418000000000006
229.602000000000004 -82.076999999999998 994.277000000000044
230.206999999999994 -82.034000000000006 994.150999999999954
230.677999999999997 -82.055999999999997 994.018000000000029
231.283999999999992 -82.016000000000005 993.899000000000001
-8.429000000000000 -81.697999999999993 1000.674999999999955
231.895000000000010 -81.471000000000004 994.101999999999975
232.332999999999998 -81.402000000000001 993.981999999999971
232.968999999999994 -81.451999999999998 993.836999999999989
233.403999999999996 -81.382000000000005 993.708999999999946
234.038000000000011 -81.430999999999997 993.554999999999950
234.473000000000013 -81.361999999999995 993.429999999999950
235.106999999999999 -81.409999999999997 993.275999999999954
235.543000000000006 -81.340000000000003 993.158999999999992
236.180000000000007 -81.391000000000005 993.015999999999963
236.617999999999995 -81.323999999999998 992.905999999999949
237.254999999999995 -81.375000000000000 992.764999999999986
237.689999999999998 -81.305999999999997 992.648000000000025
-9.020000000000000 -81.132000000000005 999.528999999999996
238.336000000000013 -80.852000000000004 992.836999999999989
238.941000000000003 -80.810000000000002 992.712999999999965
239.406000000000006 -80.831999999999994 992.572000000000003
240.008999999999986 -80.790999999999997 992.438999999999965
240.474999999999994 -80.813000000000002 992.299999999999955
241.078000000000003 -80.771000000000001 992.168999999999983
241.544999999999987 -80.793999999999997 992.034999999999968
242.150000000000006 -80.751999999999995 991.913999999999987
242.620000000000005 -80.775999999999996 991.789999999999964
243.223999999999990 -80.734999999999999 991.668999999999983
243.694999999999993 -80.760000000000005 991.546000000000049
244.299000000000007 -80.718999999999994 991.426000000000045
-8.987000000000000 -80.441999999999993 998.322999999999979
244.924000000000007 -80.177999999999997 991.677000000000021
245.355999999999995 -80.109999999999999 991.567999999999984
245.997999999999990 -80.159999999999997 991.432000000000016
246.429000000000002 -80.093000000000004 991.322000000000003
247.068999999999988 -80.141999999999996 991.177000000000021
247.497999999999990 -80.073999999999998 991.066000000000031
248.139000000000010 -80.123999999999995 990.923999999999978
248.566000000000003 -80.055999999999997 990.802999999999997
249.205000000000013 -80.103999999999999 990.653000000000020
249.628999999999991 -80.036000000000001 990.528000000000020
250.269000000000005 -80.085999999999999 990.378000000000043
250.693000000000012 -80.019000000000005 990.255999999999972
-9.535000000000000 -79.756000000000000 996.866999999999962
251.343999999999994 -79.564999999999998 990.432000000000016
251.955000000000013 -79.524000000000001 990.339000000000055
252.425000000000011 -79.548000000000002 990.225999999999999
253.038999999999987 -79.510000000000005 990.142000000000053
253.514000000000010 -79.537000000000006 990.049999999999955
254.129999999999995 -79.498000000000005 989.976999999999975
254.603000000000009 -79.525000000000006 989.879000000000019
255.210000000000008 -79.486999999999995 989.772000000000048
255.677999999999997 -79.510999999999996 989.650999999999954
256.279999999999973 -79.468999999999994 989.525999999999954
256.738000000000000 -79.491000000000000 989.370000000000005
257.334000000000003 -79.447000000000003 989.221999999999980
257.790000000000020 -79.468000000000004 989.058999999999969
-9.507000000000000 -79.040999999999997 995.650999999999954
258.367000000000019 -78.834000000000003 989.293999999999983
259.005999999999972 -78.881000000000000 989.130999999999972
259.425000000000011 -78.813999999999993 989.005999999999972
260.069999999999993 -78.864000000000004 988.868000000000052
260.490000000000009 -78.798000000000002 988.753000000000043
261.137999999999977 -78.846999999999994 988.620999999999981
261.555000000000007 -78.780000000000001 988.499000000000024
262.197999999999979 -78.828000000000003 988.346999999999980
262.610999999999990 -78.760000000000005 988.211000000000013
263.247999999999990 -78.805000000000007 988.038000000000011
263.654999999999973 -78.736000000000004 987.880999999999972
264.288000000000011 -78.783000000000001 987.697000000000003
-10.093999999999999 -78.483000000000004 994.537000000000035
264.882999999999981 -78.230999999999995 987.818999999999960
265.338999999999999 -78.251000000000005 987.662000000000035
265.937999999999988 -78.209999999999994 987.529999999999973
266.403999999999996 -78.236999999999995 987.408999999999992
267.012999999999977 -78.198999999999998 987.316000000000031
267.483999999999980 -78.224999999999994 987.220000000000027
268.095000000000027 -78.185000000000002 987.134999999999991
268.571000000000026 -78.212999999999994 987.052999999999997
269.185000000000002 -78.174999999999997 986.980000000000018
269.653000000000020 -78.200999999999993 986.870999999999981
270.257999999999981 -78.161000000000001 986.764999999999986
270.721000000000004 -78.186000000000007 986.636999999999944
-10.061999999999999 -77.807000000000002 993.469000000000051
271.276999999999987 -77.549999999999997 986.808999999999969
271.923999999999978 -77.597999999999999 986.663000000000011
272.329999999999984 -77.528000000000006 986.525999999999954
272.975000000000023 -77.575999999999993 986.374000000000024
273.382000000000005 -77.509000000000000 986.244000000000028
274.029999999999973 -77.558000000000007 986.097999999999956
274.439999999999998 -77.492000000000004 985.980000000000018
275.091999999999985 -77.540999999999997 985.846999999999980
275.502999999999986 -77.474999999999994 985.735999999999990
276.154999999999973 -77.525000000000006 985.604000000000042
276.567999999999984 -77.459000000000003 985.503000000000043
277.223999999999990 -77.510000000000005 985.384000000000015
-10.609000000000000 -77.153000000000006 992.288999999999987
277.845000000000027 -76.968999999999994 985.594000000000051
278.312000000000012 -76.994000000000000 985.485000000000014
278.918000000000006 -76.954999999999998 985.388000000000034
279.386000000000024 -76.980000000000004 985.280999999999949
279.990999999999985 -76.939999999999998 985.181000000000040
280.456999999999994 -76.965999999999994 985.070000000000050
281.064000000000021 -76.927000000000007 984.977999999999952
281.528000000000020 -76.953000000000003 984.860000000000014
282.130999999999972 -76.912999999999997 984.754999999999995
282.591000000000008 -76.936999999999998 984.625000000000000
283.190999999999974 -76.894999999999996 984.509000000000015
283.644999999999982 -76.917000000000002 984.357999999999947
-10.577999999999999 -76.445999999999998 991.106999999999971
284.235999999999990 -76.293000000000006 984.668999999999983
284.887999999999977 -76.343000000000004 984.529999999999973
285.298000000000002 -76.280000000000001 984.432999999999993
285.949000000000012 -76.326999999999998 984.285999999999945
286.355999999999995 -76.260999999999996 984.184999999999945
287.007999999999981 -76.308999999999997 984.039999999999964
287.408999999999992 -76.244000000000000 983.922000000000025
288.059000000000026 -76.290999999999997 983.767000000000053
288.458000000000027 -76.224000000000004 983.644000000000005
289.105999999999995 -76.271000000000001 983.484000000000037
289.502999999999986 -76.204999999999998 983.355999999999995
290.149000000000001 -76.251999999999995 983.187999999999988
-11.162000000000001 -75.885999999999996 989.951999999999998
290.774000000000001 -75.710999999999999 983.403999999999996
291.235999999999990 -75.736000000000004 983.283000000000015
291.838000000000022 -75.695999999999998 983.179999999999950
292.305000000000007 -75.722999999999999 983.076000000000022
292.910000000000025 -75.683999999999997 982.984000000000037
293.380999999999972 -75.710999999999999 982.894000000000005
293.983999999999980 -75.671999999999997 982.797000000000025
294.451000000000022 -75.698999999999998 982.693999999999960
295.052000000000021 -75.659000000000006 982.590000000000032
295.516000000000020 -75.683999999999997 982.476999999999975
296.112000000000023 -75.643000000000001 982.359000000000037
296.565999999999974 -75.668000000000006 982.211000000000013
297.156000000000006 -75.626000000000005 982.076000000000022
-11.127000000000001 -75.206000000000003 988.764999999999986
297.829000000000008 -75.094999999999999 982.445000000000050
298.223999999999990 -75.030000000000001 982.328999999999951
298.875999999999976 -75.076999999999998 982.169999999999959
299.269000000000005 -75.013000000000005 982.052000000000021
299.922000000000025 -75.058999999999997 981.894000000000005
300.312999999999988 -74.994000000000000 981.770999999999958
300.961000000000013 -75.039000000000001 981.600000000000023
301.353000000000009 -74.974999999999994 981.481999999999971
302.002999999999986 -75.019999999999996 981.312999999999988
302.389000000000010 -74.954999999999998 981.179999999999950
303.033000000000015 -74.998999999999995 980.995000000000005
303.418000000000006 -74.932000000000002 980.856999999999971
-11.670999999999999 -74.558999999999997 987.620000000000005
304.110999999999990 -74.480999999999995 981.053999999999974
304.689000000000021 -74.436000000000007 980.886999999999944
305.127999999999986 -74.456999999999994 980.692000000000007
305.702999999999975 -74.411000000000001 980.515999999999963
306.137999999999977 -74.432000000000002 980.312999999999988
306.708000000000027 -74.385000000000005 980.121999999999957
307.142999999999972 -74.403999999999996 979.918000000000006
307.713999999999999 -74.356999999999999 979.727999999999952
308.149999999999977 -74.378000000000000 979.529999999999973
308.721000000000004 -74.331000000000003 979.342999999999961
309.163000000000011 -74.352999999999994 979.168999999999983
309.740000000000009 -74.307000000000002 979.000000000000000
-11.638000000000000 -73.856999999999999 986.403999999999996
310.367000000000019 -73.768000000000001 979.216000000000008
310.745999999999981 -73.701999999999998 979.076000000000022
311.398000000000025 -73.745999999999995 978.908999999999992
311.776000000000010 -73.680999999999997 978.768000000000029
312.427999999999997 -73.725999999999999 978.600999999999999
312.800999999999988 -73.659999999999997 978.448999999999955
313.456000000000017 -73.706000000000003 978.291000000000054
313.831000000000017 -73.641000000000005 978.145999999999958
314.490000000000009 -73.688000000000002 978.001999999999953
314.875999999999976 -73.623999999999995 977.890999999999963
315.545000000000016 -73.671000000000006 977.760999999999967
315.944999999999993 -73.611000000000004 977.706000000000017
-12.220000000000001 -73.311000000000007 985.339000000000055
316.620999999999981 -73.150000000000006 977.745999999999981
317.230999999999995 -73.117999999999995 977.730999999999995
317.747999999999990 -73.150999999999996 977.690000000000055
318.336999999999989 -73.117999999999995 977.663999999999987
318.858000000000004 -73.147000000000006 977.634999999999991
319.444000000000017 -73.109999999999999 977.601999999999975
319.932000000000016 -73.140000000000001 977.525999999999954
320.517999999999972 -73.103999999999999 977.458999999999946
320.968000000000018 -73.129000000000005 977.307999999999993
321.552000000000021 -73.087000000000003 977.188999999999965
321.978999999999985 -73.106999999999999 976.982999999999947
322.538999999999987 -73.058999999999997 976.779999999999973
-12.186999999999999 -72.653000000000006 984.403999999999996
323.107000000000028 -72.506000000000000 976.792000000000030
323.413000000000011 -72.427999999999997 976.475999999999999
323.985999999999990 -72.453000000000003 976.048999999999978
324.257999999999981 -72.367999999999995 975.629999999999995
324.797000000000025 -72.385000000000005 975.104000000000042
325.012999999999977 -72.287000000000006 974.520999999999958
325.577999999999975 -72.314999999999998 974.091999999999985
-12.730000000000000 -72.027000000000001 983.466000000000008
-12.701000000000001 -71.366000000000000 982.719000000000051
-13.279000000000000 -70.820999999999998 981.640999999999963
-13.781000000000001 -70.126999999999995 980.904999999999973
-13.789999999999999 -69.569999999999993 980.085000000000036
-14.324999999999999 -68.938999999999993 979.009000000000015
-14.336000000000000 -68.379999999999995 978.386999999999944
-14.832000000000001 -67.671000000000006 977.359000000000037
-14.840999999999999 -67.122000000000000 976.628000000000043
-15.381000000000000 -66.531000000000006 976.008000000000038
-15.385000000000000 -65.948999999999998 975.027000000000044
-15.875000000000000 -65.233999999999995 973.889999999999986
-15.880000000000001 -64.680000000000007 972.990000000000009
-16.405000000000001 -64.039000000000001 971.605000000000018
-16.408000000000001 -63.465000000000003 970.650999999999954
-16.893999999999998 -62.759000000000000 969.535999999999945
-16.893999999999998 -62.186000000000000 968.351999999999975
-17.414000000000001 -61.548999999999999 966.950000000000045
-17.420000000000002 -60.994999999999997 966.210000000000036
-17.905999999999999 -60.305999999999997 965.260999999999967
-18.466000000000001 -59.771000000000001 964.044999999999959
-18.434999999999999 -59.152000000000001 963.384999999999991
-18.954000000000001 -58.536999999999999 962.163000000000011
-18.908000000000001 -57.881000000000000 961.047000000000025
-19.465000000000000 -57.347999999999999 959.799999999999955
-19.423999999999999 -56.704000000000001 958.682000000000016
-19.943000000000001 -56.106000000000002 957.727999999999952
-19.890000000000001 -55.438000000000002 956.308999999999969
-20.451000000000001 -54.930000000000000 955.432000000000016
-20.408999999999999 -54.292999999999999 954.333999999999946
-20.920999999999999 -53.689000000000000 953.201000000000022
-20.879999999999999 -53.061000000000000 952.429999999999950
-21.437000000000001 -52.560000000000002 951.506999999999948
-21.402999999999999 -51.944000000000003 950.797000000000025
-21.916000000000000 -51.363000000000000 949.835000000000036
-21.879999999999999 -50.756000000000000 949.345000000000027
-22.428000000000001 -50.259999999999998 948.177999999999997
-22.213999999999999 -49.229999999999997 939.825000000000045
-22.704999999999998 -48.627000000000002 938.243000000000052
-23.238000000000000 -48.107999999999997 938.438999999999965
-23.247000000000000 -47.595999999999997 938.136999999999944
-23.736000000000001 -46.984999999999999 938.193999999999960
-23.751999999999999 -46.481000000000002 937.868000000000052
-24.279000000000000 -45.954000000000001 937.769999999999982
-24.231000000000002 -45.378999999999998 935.398000000000025
-24.469999999999999 -44.298999999999999 926.061000000000035
-24.521000000000001 -43.881999999999998 927.154999999999973
-25.047000000000001 -43.347999999999999 927.182999999999993
-25.073000000000000 -42.884000000000000 927.640999999999963
-25.452000000000002 -42.119999999999997 924.019999999999982
-25.460999999999999 -41.612000000000002 923.436000000000035
-25.945000000000000 -41.030999999999999 922.120000000000005
-25.957000000000001 -40.546999999999997 922.019999999999982
-26.417000000000002 -39.927000000000000 921.461999999999989
-26.443000000000001 -39.445999999999998 921.437000000000012
-26.951000000000001 -38.914000000000001 921.048000000000002
-27.465000000000000 -38.387000000000000 920.898000000000025
-27.443000000000001 -37.838000000000001 921.085000000000036
-27.998000000000001 -37.384000000000000 920.908000000000015
-27.994000000000000 -36.840000000000003 921.254999999999995
-28.518000000000001 -36.331000000000003 921.445000000000050
-28.512000000000000 -35.802999999999997 922.138000000000034
-29.061000000000000 -35.350000000000001 921.875000000000000
-29.088000000000001 -34.840000000000003 923.100999999999999
-29.466000000000001 -34.142000000000003 918.403000000000020
-29.263000000000002 -33.404000000000003 913.254000000000019
-29.782000000000000 -32.923999999999999 912.073999999999955
-29.745999999999999 -32.350000000000001 911.437000000000012
-30.206000000000000 -31.780999999999999 909.888000000000034
-30.132999999999999 -31.187999999999999 908.524000000000001
-30.638000000000002 -30.704000000000001 907.101999999999975
-30.603000000000002 -30.129999999999999 906.511999999999944
-31.088999999999999 -29.597999999999999 905.801000000000045
-31.542999999999999 -29.036999999999999 904.230000000000018
-31.532000000000000 -28.547000000000001 903.519000000000005
-31.949999999999999 -27.925999999999998 902.201000000000022
-31.954000000000001 -27.430000000000000 901.465000000000032
-32.402000000000001 -26.872000000000000 899.840000000000032
-32.395000000000003 -26.388999999999999 899.274999999999977
-32.802000000000000 -25.765000000000001 897.740000000000009
-32.811999999999998 -25.277999999999999 897.206000000000017
-33.270000000000003 -24.736999999999998 895.952999999999975
-33.252000000000002 -24.251999999999999 895.124000000000024
-33.670000000000002 -23.648000000000000 894.020999999999958
-33.674999999999997 -23.157000000000000 893.365999999999985
-34.137000000000000 -22.628000000000000 892.287000000000035
-34.125999999999998 -22.154000000000000 891.658000000000015
-34.539000000000001 -21.556000000000001 890.490000000000009
-34.548000000000002 -21.073000000000000 889.938999999999965
-35.009000000000000 -20.545999999999999 888.923000000000002
-35.472000000000001 -20.021000000000001 887.999000000000024
-35.426000000000002 -19.486000000000001 887.639000000000010
-35.930000000000000 -19.038000000000000 886.673000000000002
-35.902999999999999 -18.491000000000000 886.312000000000012
-36.359999999999999 -17.972999999999999 885.302000000000021
-36.316000000000003 -17.440000000000001 885.001999999999953
-36.823999999999998 -16.995999999999999 884.208999999999946
-36.798999999999999 -16.451000000000001 883.899999999999977
-37.259999999999998 -15.933999999999999 883.038999999999987
-37.216999999999999 -15.404000000000000 882.774000000000001
-37.718000000000004 -14.951000000000001 881.884000000000015
-37.694000000000003 -14.410000000000000 881.586000000000013
-38.148000000000003 -13.911000000000000 880.625999999999976
-38.104999999999997 -13.398000000000000 880.378000000000043
-38.613000000000000 -12.955000000000000 879.677999999999997
-38.600000000000001 -12.398999999999999 879.618000000000052
-39.094999999999999 -11.898000000000000 879.609000000000037
-39.591999999999999 -11.403000000000000 879.666000000000054
-39.594999999999999 -10.949000000000000 879.495000000000005
-40.034999999999997 -10.397000000000000 879.263000000000034
-40.055999999999997 -9.923999999999999 879.010999999999967
-40.518999999999998 -9.433999999999999 878.337999999999965
-40.488000000000000 -8.967000000000001 877.441000000000031
-40.889000000000003 -8.398000000000000 876.404999999999973
-40.884000000000000 -7.924000000000000 875.604000000000042
-41.316000000000003 -7.421000000000000 874.312000000000012
-41.289999999999999 -6.966000000000000 873.572999999999979
-41.691000000000003 -6.400000000000000 872.587999999999965
-41.692000000000000 -5.924000000000000 871.890999999999963
-42.116000000000000 -5.431000000000000 870.527000000000044
-42.095999999999997 -4.981000000000000 869.919999999999959
-42.491000000000000 -4.416000000000000 868.871999999999957
-42.491000000000000 -3.949000000000000 868.193999999999960
-42.924999999999997 -3.459000000000000 867.083999999999946
-43.363999999999997 -2.962000000000000 866.092999999999961
-43.298000000000002 -2.455000000000000 865.493000000000052
-43.795999999999999 -2.029000000000000 864.826000000000022
-43.756000000000000 -1.494000000000000 864.235999999999990
-44.201000000000001 -1.010000000000000 863.431000000000040
-44.133000000000003 -0.504000000000000 862.788999999999987
-44.621000000000002 -0.083000000000000 861.539999999999964
-44.557000000000002 0.447000000000000 860.931000000000040
-44.982999999999997 0.932000000000000 859.201999999999998
-44.892000000000003 1.435000000000000 858.793000000000006
-45.341999999999999 1.851000000000000 857.315000000000055
-45.314999999999998 2.379000000000000 856.974000000000046
-45.741999999999997 2.857000000000000 855.932999999999993
-45.683999999999997 3.352000000000000 855.525999999999954
-46.154000000000003 3.770000000000000 854.518000000000029
-46.121000000000002 4.294000000000000 854.046000000000049
-46.545000000000002 4.767000000000000 853.009999999999991
-46.959000000000003 5.240000000000000 851.818999999999960
-46.944000000000003 5.670000000000000 851.417000000000030
-47.308999999999997 6.202000000000000 850.184999999999945
-47.326000000000001 6.661000000000000 849.825000000000045
-47.741999999999997 7.132000000000000 848.721999999999980
-47.729999999999997 7.560000000000000 848.364000000000033
-48.091000000000001 8.092000000000001 847.130999999999972
-48.106999999999999 8.545000000000000 846.734000000000037
-48.514000000000003 9.010000000000000 845.538999999999987
-48.497999999999998 9.430000000000000 845.131999999999948
-48.850000000000001 9.952999999999999 843.777000000000044
-48.863999999999997 10.409000000000001 843.373000000000047
-49.280000000000001 10.875999999999999 842.363000000000056
-49.262999999999998 11.297000000000001 841.962999999999965
-49.624000000000002 11.811999999999999 840.803999999999974
-49.637000000000000 12.266999999999999 840.403000000000020
-50.045999999999999 12.723000000000001 839.323999999999955
-50.442999999999998 13.170999999999999 838.065000000000055
-50.383000000000003 13.645000000000000 837.711999999999989
-50.835999999999999 14.045999999999999 836.676000000000045
-50.805000000000000 14.560000000000000 836.285999999999945
-51.206000000000003 15.005000000000001 835.139000000000010
-51.143999999999998 15.483000000000001 834.761999999999944
-51.587000000000003 15.869999999999999 833.611999999999966
-51.555999999999997 16.378000000000000 833.208999999999946
-51.956000000000003 16.824000000000002 832.096999999999980
-51.890999999999998 17.297999999999998 831.697999999999979
-52.338000000000001 17.681000000000001 830.635999999999967
-52.302000000000000 18.187999999999999 830.173000000000002
-52.706000000000003 18.628000000000000 829.169999999999959
-52.634000000000000 19.097000000000001 828.668999999999983
-53.073999999999998 19.475999999999999 827.553999999999974
-53.036999999999999 19.981000000000002 827.072000000000003
-53.433000000000000 20.417000000000002 825.984000000000037
-53.826999999999998 20.853000000000002 824.907000000000039
-53.808000000000000 21.262000000000000 824.528999999999996
-54.152999999999999 21.751000000000001 823.416000000000054
-54.165999999999997 22.193999999999999 823.001999999999953
-54.564999999999998 22.626999999999999 822.033999999999992
-54.542999999999999 23.035000000000000 821.625999999999976
-54.881000000000000 23.518000000000001 820.461000000000013
-54.892000000000003 23.960000000000001 820.023000000000025
-55.295000000000002 24.395000000000000 819.153999999999996
-55.271999999999998 24.795000000000002 818.735999999999990
-55.613000000000000 25.274999999999999 817.650999999999954
-55.622999999999998 25.712000000000000 817.192000000000007
-56.011000000000003 26.138999999999999 816.155999999999949
-55.984000000000002 26.539000000000001 815.686000000000035
-56.326999999999998 27.020000000000000 814.676000000000045
-56.338999999999999 27.456000000000000 814.250999999999976
-56.735999999999997 27.882999999999999 813.371999999999957
-56.707999999999998 28.277000000000001 812.910999999999945
-57.048999999999999 28.751000000000001 811.902000000000044
-57.491000000000000 29.114999999999998 811.048000000000002
-57.447000000000003 29.608000000000001 810.486999999999966
-57.820999999999998 30.015999999999998 809.346999999999980
-57.749000000000002 30.466999999999999 808.923000000000002
-58.189999999999998 30.827999999999999 808.086999999999989
-58.155000000000001 31.321999999999999 807.657000000000039
-58.534999999999997 31.730000000000000 806.629999999999995
-58.460999999999999 32.176000000000002 806.192999999999984
-58.895000000000003 32.533000000000001 805.287000000000035
-58.853999999999999 33.023000000000003 804.794999999999959
-59.244999999999997 33.435000000000002 803.937000000000012
-59.164999999999999 33.877000000000002 803.442000000000007
-59.597000000000001 34.231999999999999 802.548999999999978
-59.561000000000000 34.719000000000001 802.105999999999995
-59.942000000000000 35.122000000000000 801.164999999999964
-59.862000000000002 35.558000000000000 800.668000000000006
-60.292999999999999 35.912999999999997 799.784999999999968
-60.609999999999999 36.356999999999999 798.653999999999996
-60.625999999999998 36.792000000000002 798.293000000000006
-61.003999999999998 37.194000000000003 797.354000000000042
-60.976999999999997 37.579000000000001 796.967999999999961
-61.289999999999999 38.017000000000003 795.807999999999993
-61.304000000000002 38.448000000000000 795.426000000000045
-61.679000000000002 38.843000000000004 794.499000000000024
-61.656999999999996 39.235999999999997 794.163999999999987
-61.990000000000002 39.686000000000000 793.302000000000021
-61.999000000000002 40.113000000000000 792.854000000000042
