# This PCD file was generated using the MATLAB® pcwrite function
# from Computer Vision Toolbox®.
# .PCD v.7 - Point Cloud Data file format
VERSION .7
FIELDS x y z
SIZE 8 8 8
TYPE F F F
COUNT 1 1 1
WIDTH 765
HEIGHT 1
VIEWPOINT 0 0 0 1 0 0 0
POINTS 765
DATA ascii
1339.928439684734030 130.102069903246218 -860.599805129311221
1340.573862136508524 129.157551964012953 -860.864842569037592
1340.985261022096438 128.967773599895850 -860.628279372525185
1341.859650799570773 127.941621555587915 -860.997138032365683
1342.309413981676698 127.681958709269395 -860.748813026750099
1342.922867887352822 126.752040952540597 -860.980626272820473
1343.729640468703110 125.816605615027754 -861.206158739268631
1344.139940768212455 125.572093490203599 -861.047550715969237
1344.850292844412252 124.636381923599856 -861.273185214892010
1345.287845197012302 124.331089596742231 -861.093670429333088
1346.023231129898249 123.431970700546856 -861.259377617730706
1346.414932560898251 123.199646229766927 -861.081702783027936
1347.151617159430316 122.245374270234663 -861.325643299341891
1347.566929211732713 121.952346527893724 -861.126204930931294
1348.304026217704404 121.050068768300889 -861.283188942511970
1348.682851160600876 120.823257096269458 -861.095374820614666
1349.399859113918865 119.877094536694585 -861.319794389814774
1349.798047114407836 119.593816146597533 -861.106473764332009
1350.628508805620413 118.633850083489904 -861.335333346150946
1351.031102615765576 118.392633203088963 -861.165422605906770
1351.666544884572886 117.491341560759111 -861.319190623160807
1352.068969676421148 117.206395420577394 -861.106387888667200
1353.070591839048348 116.142036651239493 -861.467954908119282
1353.580170485548024 115.259786409070671 -861.606302965190366
1354.195878914102650 114.943949653535640 -861.514846293775918
1354.819726522348446 114.046093217674581 -861.658676341704449
1355.394464121945475 113.711785809917160 -861.493421116101445
1355.889455496587743 112.834980896459399 -861.621891929602725
1356.450504288500724 112.552227785885009 -861.479761818589395
1357.140268924803422 111.610358816353255 -861.668623449338156
1357.718776712069257 111.274658560631337 -861.504726775094127
1358.347714718331645 110.315118606647275 -861.734598860075039
1358.920213601481692 110.024302231276693 -861.600271261937678
1359.612734882021869 109.077917367665066 -861.794518764886789
1360.121244770210978 108.783503983745561 -861.573510885786618
1360.688267151381524 107.857350374640475 -861.747393610507629
1361.165315359580063 107.622307448378081 -861.534711091720965
1362.007588137865241 106.584709415278098 -861.835956971036808
1362.651601407713088 105.663652070213402 -861.979534063910023
1363.135254325593451 105.329567663980185 -861.830264188450656
1363.935051710946937 104.367307583971353 -862.007167652683165
1364.395974043314709 104.086626300241790 -861.868262479337091
1365.119000693604221 103.115831752210852 -862.068391300922713
1365.570491786900220 102.799934571437518 -861.889375128537495
1366.435610840740537 101.795252777370251 -862.111649056049600
1366.831367424960717 101.552599795746062 -861.915811688377744
1367.735384962549688 100.470385853596554 -862.257591582884174
1368.208585519179678 100.141543782455528 -862.094858197168833
1368.978382653948302 99.191319520004356 -862.239278983942313
1369.401560309556999 98.931615596127585 -862.065426848260586
1370.168145704076778 97.927820213023608 -862.293386968793129
1370.619223943937413 97.612495612318014 -862.108006701248087
1371.447488839827201 96.622148559069956 -862.295621046911265
1371.865475241326521 96.366573462905194 -862.108021050010166
1372.686849317699853 95.325152183913872 -862.378695256860169
1373.458224174576117 94.312005416320005 -862.608803089148864
1373.983070055187000 94.006567875854728 -862.388571977925494
1374.628715376061564 93.016433036725232 -862.593709094399856
1375.125671444770433 92.764047369677996 -862.388231193928732
1375.977561373911840 91.698873936291307 -862.676472931496392
1376.466566350671201 91.414120516195510 -862.426016050775047
1377.183255431106090 90.378115441146463 -862.693912287930289
1377.656780769708803 90.137949664405596 -862.460727432332988
1378.498347093479879 89.076702648619118 -862.736007439555351
1378.978363753333269 88.797322065226126 -862.474046524020423
1379.659871812093115 87.778139165470691 -862.707398434577954
1380.143619164645997 87.532285394160795 -862.474610018458179
1381.122044395281819 86.382620365249750 -862.853576571506437
1381.624355105688210 86.091272875287643 -862.604334483293542
1382.407331379043171 85.004589871707026 -862.925595099655084
1382.891159356978733 84.759182617318288 -862.681999550241017
1383.752799944618346 83.676856978817739 -862.964608656813652
1384.497736225312337 82.665543581083625 -863.148514316808814
1384.949554683400038 82.350029885658216 -862.956469492062070
1385.839951474229110 81.301440170580122 -863.160739793071343
1386.324916867045886 80.999986819012179 -863.016991838161971
1387.132310960810628 79.946945911969692 -863.246830467103109
1387.609180113689035 79.614949415895353 -863.072890341878747
1388.414643113423153 78.614619689369817 -863.208289555853980
1388.835440198747165 78.351600043638030 -863.010409542431262
1389.582227080757548 77.333243061603525 -863.189318884408749
1389.956834339890520 77.065411752691944 -862.932878232919393
1390.777244293326021 76.052313772570642 -863.074801274769129
1391.068342310739808 75.867792613869653 -862.779262959744642
1392.301199506294779 74.583475708859339 -863.307796427958692
1392.595448704496448 74.327315263479647 -863.002937040513643
1394.177872592479616 72.866225134202523 -863.703602376269828
1394.959547741912957 71.737889605676287 -864.005643884585538
1395.674286069257960 71.342662928546133 -863.929689516371127
1396.204547091706445 70.448788858167518 -863.940573355764286
1396.881504652973263 70.047686143151793 -863.811073808102265
1397.260411340428846 69.192986348111845 -863.794132403587469
1397.945669192470632 68.816270931236033 -863.694572208399222
1398.613025378173916 67.833258286135845 -863.795234862469897
1399.245630805392921 67.458595156095782 -863.634851062207758
1400.044922795294269 66.339978574050406 -863.939923905872547
1400.609513163567954 66.036028955426218 -863.735318476285784
1401.445487999636043 64.944414848398310 -863.966274956837196
1402.062615925521413 64.578613332668340 -863.787265399326316
1403.075409826131818 63.322409676135919 -864.248695985061545
1403.712315009156555 62.973081032723428 -864.103825915135758
1404.526140942660277 61.891609223722412 -864.307276758430021
1405.043039503588261 61.588363738179737 -864.050989647402389
1406.180647149587912 60.250169819496477 -864.600182013354015
1406.933682919206603 59.256966955055248 -864.666085945410487
1407.784637688009070 58.717656071949477 -864.759246423784361
1408.217045742686651 57.871461974078727 -864.693088590174966
1408.599027263131120 57.601354517732773 -864.430779427176276
1408.770459749213160 56.971853565631761 -864.075156811655916
1409.098010711489223 56.761322442464177 -863.785755662632482
1409.012667954179051 56.240906957036088 -863.319743521660030
1409.215405348898457 56.122281457586382 -862.910789309254596
1409.284417116624809 55.517100296326021 -862.449921518492829
1409.386506495360436 55.449627933203544 -862.007630609310809
1410.121925759007354 54.407281037276050 -862.140493655937689
1410.597180856291288 54.078381230470256 -861.949180984390296
1411.230954105805267 53.152490542148200 -861.929256448562342
1411.678878260607462 52.864566419846085 -861.718890873415148
1412.227063902604186 51.940290997505883 -861.709220738811382
1412.645691067732969 51.647039200607480 -861.466493111468026
1413.282602076531020 50.717313781501048 -861.431721039949252
1413.750825473924351 49.788040943975716 -861.467328553918946
1414.230004964394084 49.531968686000369 -861.183006485586816
1414.910163901402939 48.519009808850342 -861.275587508615899
1415.428269284248017 48.215300326467684 -861.011795180016861
1416.019348903868377 47.204032788327424 -861.137648036895030
1416.541765104202113 46.919862655726604 -860.884133384329061
1417.162807748929026 45.941867044168873 -860.924142218072348
1417.803538717368610 45.558943535129231 -860.745989294795436
1418.447648104591508 44.511745065477498 -860.903509368410823
1419.162789959681049 44.102382944516705 -860.788388350506239
1419.957229944779101 43.009003289952261 -860.957613643597597
1420.679060572703065 42.575031098918316 -860.834030666252033
1421.363049624888617 41.497328689103085 -861.018902566242218
1421.999349833320593 41.139254334974794 -860.837301765117445
1422.974352328169971 39.925857557105303 -861.131719226238829
1423.831497155079660 38.787461028224413 -861.336194836016716
1424.419729928208653 38.385355643105413 -861.214874958885275
1425.537630146105585 37.129158732146777 -861.503871025705848
1426.154758117155779 36.727158464846127 -861.403313051307123
1427.280778413179178 35.411300615954588 -861.794835396933081
1428.015223422348754 34.913367901918889 -861.775300149203531
1428.976625446312937 33.754504773039912 -861.949172557400971
1429.699474815425901 33.282827960779230 -861.921752589949392
1430.786479379499269 31.987456260609179 -862.281351734259715
1431.195522868152239 31.701168120025841 -862.027458952561574
1431.944109738711177 30.676178959531967 -862.037052683824186
1432.587259259410757 30.254726122904685 -861.952540789332261
1434.118210058576096 28.665770160756836 -862.620057250897844
1434.697701254208368 28.268974580767292 -862.485011819885358
1435.915687135734288 26.935914580989845 -862.823766584196505
1436.513631940388223 26.541897650500061 -862.699244624549465
1440.652429202201802 23.258289822894199 -865.206617251114949
1443.992329938230796 20.466133408465112 -867.143165895677839
1443.373629860539495 20.900329706907030 -866.051108659929582
1443.459358470397319 20.192577326120897 -865.791269961708849
1443.233349187059957 20.389737333976598 -864.973274355816557
1443.048180414703893 19.907827073338240 -864.422609294802669
1443.066039284425187 19.930507014753914 -863.777994907598895
1443.089851979859077 19.259367312281597 -863.470627982310361
1443.229917561151069 19.217713723183749 -862.908933557222554
1443.292123886505578 18.573643965766280 -862.527188225195800
1443.529132041716366 18.453675572838563 -862.040152568831331
1443.751172908030185 17.650880897257480 -861.878725943715608
1444.092137526464285 17.477238839821496 -861.457426076671709
1444.454759200150875 16.635736184137158 -861.287953902450454
1444.843744949712118 16.416132088355482 -860.901200565278714
1445.992227703801518 15.002731308782870 -861.379911303166637
1448.623040565811152 12.715856372213693 -862.679144345814393
1448.510641832699548 12.789685904568955 -862.040668221280612
1448.447230539827387 12.220387629181175 -861.556421943303121
1447.862365000995396 12.595996356934677 -860.612930259201903
1454.642555248049121 7.555940059876150 -864.739666845437796
1456.565924579175544 6.283045525620651 -865.539481650561584
1456.585184312809815 5.653509064177115 -865.129146566064264
1457.035217738016172 5.343004188851523 -864.880943699952013
1457.008462705515285 4.797333216072843 -864.317722303433357
1457.449657713566467 4.502115681572775 -864.050098323414659
1457.260016761457109 4.012914732311856 -863.487439702983011
1458.538403028111134 3.150119648666816 -863.784448974854513
1464.687553636816119 -1.501759995600935 -867.470869804992844
1465.424508728647425 -1.994230210576120 -867.427150665365048
1466.054146345271420 -3.036081494170276 -867.419059816940262
1466.587285372953829 -3.402619380874057 -867.225791114079925
1467.493301319219199 -4.576183602832828 -867.297598536819123
1468.050034070778338 -5.625034404370354 -867.353631689900794
1468.895194190206894 -6.138979724515934 -867.243765043617145
1469.669242440048038 -7.281056187443710 -867.328380656239801
1470.743634731516750 -7.955821144035383 -867.387631338254550
1471.269825333843983 -8.987521297020862 -867.412777071998562
1472.585173391627450 -9.817941652452475 -867.619793548382404
1473.229640267755713 -10.877040408995924 -867.612488693617706
1474.320470432397769 -11.564294278598993 -867.676620301184585
1475.114550124867264 -12.779656292171637 -867.880776580661177
1476.212395158308482 -13.465089717759156 -867.933931959221582
1477.048767713579309 -14.659316885168153 -868.057109030037282
1477.807953334021931 -15.125047768415584 -867.894462128517944
1478.580012590474553 -16.328357068018647 -868.080075683840391
1479.322353104066224 -16.778966345826120 -867.887670092874714
1480.045051032501306 -17.900158692278580 -867.928627958865491
1480.689242551088000 -18.288357197852690 -867.683937833528489
1482.094837384764105 -19.922739684182773 -868.288404210496992
1482.918623301912703 -21.062536489920547 -868.278547774355047
1483.839671128841474 -21.687198865970231 -868.311242671679793
1484.796723386890790 -22.972892302215371 -868.500384389821420
1485.670254445359660 -23.567429201478433 -868.520644948001291
1486.511111242730749 -24.723725704277172 -868.514953258076730
1487.453868822324694 -25.364559304129216 -868.555469808879025
1487.854077216155929 -26.276563716292742 -868.372816548439914
1488.607031320594160 -26.790778103489686 -868.305833217392546
1489.366917214360456 -27.897341841786158 -868.246073361447429
1490.048596922606066 -28.362905319105664 -868.111724972132833
1490.783287419588987 -29.503728428218324 -868.141967826493556
1491.601070003028099 -30.063464799761903 -868.116336863667811
1492.150161921161953 -31.028742256368446 -867.911218491031832
1492.882474145284959 -31.529817362569588 -867.808259163751586
1493.659506081561858 -32.703834839939077 -867.862152322549377
1494.292669283268879 -33.782741968969333 -867.821743762177789
1495.259946564025540 -34.391398228748983 -867.774942483235009
1495.921212131330094 -35.542469965067085 -867.868893621809207
1497.101917474498805 -36.300005037633241 -867.936899016727693
1497.886420511745655 -37.486276198133055 -867.990619224041438
1499.038068426732934 -38.221988727053997 -868.061530232419159
1499.766533138968498 -39.422376922757223 -868.192253138490400
1500.925116165368308 -40.166394524887949 -868.237611651579300
1501.735238671180468 -41.374114478057663 -868.304238922529066
1502.801657346502452 -42.053288885569941 -868.314113716119664
1503.499370528243389 -43.235657032150073 -868.424254556236974
1504.683353158927275 -44.000911556403651 -868.481139274263910
1505.697314430917231 -45.352606778405459 -868.669921733454657
1506.865555850085684 -46.101975298856132 -868.742613069530535
1507.586737988075583 -47.305435967049391 -868.863161299513536
1508.640972841687926 -47.983976902989355 -868.828001069118386
1509.548161524705392 -49.266698661709370 -868.948050141079193
1510.423939084384529 -50.530764759665317 -869.043374570993137
1511.392171273887016 -51.194448877079651 -869.103123862174016
1512.413555649018008 -52.510521234660757 -869.170181590398215
1513.274672827808899 -53.108096655263068 -869.123878920621564
1514.149179621628718 -54.375880297785102 -869.213765978363313
1514.975709691654629 -54.942092695532324 -869.174885767491560
1515.917512201900990 -56.206688191561227 -869.182128269697387
1516.837188539546332 -56.846508689450104 -869.171437104404845
1517.840639237600953 -58.208224700406788 -869.338629944834565
1518.707531679056501 -58.802498298053195 -869.319433443314210
1520.114766139681251 -60.394829188849712 -869.617242060328408
1521.308032981836277 -61.226301462669312 -869.771116540815456
1522.579641343475487 -62.780106306042910 -870.113087432495377
1523.863821579559044 -63.665918925260314 -870.354225217239218
1524.372103051504610 -64.639094999942586 -870.079077423402964
1525.217365894573959 -65.951570085381661 -870.256562806081320
1525.947244976654474 -66.409908116984752 -869.969362807569269
1527.920409594220473 -68.463439546140251 -870.755894481485143
1529.596172800391514 -69.572272215705425 -871.114823875058278
1531.317467595127710 -71.502232342716070 -871.849618368646134
1532.632331555166957 -72.372408857292271 -871.932569482930148
1533.905271032173005 -73.942959061097667 -872.252206072914987
1535.221790868383323 -74.800460449844877 -872.375944431872881
1536.688872471487684 -76.560018180995428 -872.941275968622676
1538.211940744944059 -77.577153631980480 -873.147401942047622
1538.500659767463503 -78.463138266956491 -872.850345471655373
1539.131809440417555 -78.841851730590122 -872.538216895346864
1539.150043090157396 -79.588342384892087 -872.194106156261114
1539.688075685275635 -79.919109576888388 -871.782497091070354
1538.849670353007923 -80.014080147297591 -870.776031873469947
1539.211064231727050 -80.204805808428375 -870.296716526099999
1538.662381035052476 -80.552325939652462 -869.597880689440217
1538.662381035052476 -80.552325939652462 -869.597880689440217
1538.065345616089871 -80.831277600314479 -869.318464018077634
1537.424508286752825 -81.111776756065694 -869.187724846697620
1537.006142666316919 -81.516247437394838 -869.023543096223648
1536.528990823658887 -81.910303729215229 -868.993431183541816
1536.208238030837492 -82.383151934424404 -868.887945706799655
1535.848633462100224 -82.859553318500900 -868.928593441592170
1535.399252625716372 -83.240685643818438 -869.361695039966662
1535.081250724706479 -83.766223968605971 -869.390351970436768
1534.834211400379445 -84.272370571225053 -869.375924405015553
1534.492402984642467 -84.781083723205938 -869.387055252708251
1534.213539394209647 -85.264775751558545 -869.350000083272903
1533.837600569043161 -85.749510979697902 -869.339104251035110
1533.521265337723889 -86.205687173927913 -869.278200488816992
1533.113475371324057 -86.668116666774552 -869.248279430330058
1532.763449459137973 -87.100738678256960 -869.168110705576396
1532.333070282947119 -87.546149465113388 -869.124844558821678
1531.962981168574970 -87.963487990727288 -869.032110680414235
1531.527110248610825 -88.405004596245760 -868.984522947036794
1530.907044737524984 -88.714570366828184 -869.439850058536081
1530.463717372707833 -89.124983979657713 -869.427913485950285
1530.091098656296481 -89.565231731553695 -869.293685409317504
1529.648924363141305 -89.976407019170892 -869.281448374689944
1529.280113481877379 -90.420467583468451 -869.148201550540307
1528.843988644587171 -90.834707907598727 -869.140324520952390
1528.483286623103368 -91.283293826411182 -869.013058296826102
1528.063663892260820 -91.709067855581679 -869.014543649342386
1527.711794846007251 -92.165085866013271 -868.893420924691213
1527.296290922994558 -92.593780531187065 -868.898147467174567
1526.947323379635009 -93.052912710806027 -868.776084937980841
1526.525383733117906 -93.474594586990634 -868.774946135691835
1525.984101677173840 -93.791455440312916 -869.155053905655109
1525.552167348236708 -94.238100775725059 -869.108949204671262
1525.176162574973205 -94.645177403087757 -869.010765698784667
1524.743632886466003 -95.090231918887469 -868.964999878259619
1524.362136369429209 -95.493414364912212 -868.862494785750300
1523.926174341063415 -95.936035017375616 -868.814027973586008
1523.543524752364874 -96.338455788612976 -868.711823343118454
1523.097705432986686 -96.774198592161667 -868.658015273431374
1522.708620120783507 -97.169606574409727 -868.549945298191687
1522.225329160518868 -97.577833543835652 -868.472288635721497
1521.797710244168684 -97.943859970228402 -868.341549608527657
1521.257570908803473 -98.309774392330496 -868.228019397948856
1520.825201449960332 -98.755878318154714 -868.801247033082063
1520.260025096426489 -99.063639934743492 -868.707143581892296
1519.757154062443533 -99.411252898333828 -868.490549649275522
1519.135687045900795 -99.675872822773840 -868.360611068394064
1518.618244553505065 -100.012096481833680 -868.135773568746117
1517.983450258613402 -100.264984729585706 -867.998170037578802
1517.489969911952358 -100.619200639970472 -867.787758022854291
1516.895859733524048 -100.901826714634353 -867.675323217411460
1516.446275978903032 -101.288002444720178 -867.491400061353261
1515.899055003811100 -101.604598461327782 -867.405393388821039
1515.492005677638190 -102.024329269191242 -867.250103773662431
1514.993550803661947 -102.375337306199128 -867.198848804643035
1514.630060221719305 -102.828068949135684 -867.071390488431234
1514.919745887952331 -103.820940162240618 -868.104043929595946
1514.560972377680628 -104.233944452517619 -868.013794302915130
1514.109065954959078 -104.664202255116265 -867.956003527064127
1513.740773001485650 -105.069287681106687 -867.859070202580028
1513.272831076006696 -105.488286680785279 -867.791076384255575
1512.872080849378790 -105.866906748459996 -867.672231635092317
1512.372496874597346 -106.261243079982023 -867.583368370327548
1511.935739051427845 -106.612216811923190 -867.442634503823683
1511.377091666623073 -106.961613199601288 -867.319377693820343
1510.913808042635765 -107.290439495658632 -867.163815706655441
1510.338556670631078 -107.626837421830771 -867.027092356872686
1509.888122948951604 -107.964551689044924 -866.876810901474869
1509.921100331504931 -108.813058780797462 -867.869653936927079
1509.506977233684665 -109.230278794852268 -867.710806558681043
1509.013075454176487 -109.576775959751387 -867.652276882592787
1508.602953180657323 -109.998169495728575 -867.499393993292188
1508.142130619668933 -110.369347666147519 -867.467295616851857
1507.781992041533613 -110.828186022776151 -867.344884292381380
1507.298231650593152 -111.180817699165516 -867.297558189064830
1506.916812565335931 -111.624566103109657 -867.158400716431061
1506.407459580957948 -111.955600147855648 -867.094565171714066
1505.958830578419111 -112.347463289003713 -866.915410852694095
1505.440295998649617 -112.669537454091540 -866.843549169893436
1504.997872082983577 -113.065632710271075 -866.665654258059476
1505.056866396092573 -113.899217370877182 -867.557430776298702
1504.622897133382367 -114.246045378694362 -867.416889001880577
1504.108741700188148 -114.628992405685949 -867.319782170084636
1503.689901607982165 -114.986380573208805 -867.187522381114491
1503.171058882515354 -115.364667305610794 -867.083910862045514
1502.760923009659564 -115.728171647260808 -866.957292792639919
1502.241366941093702 -116.106120445969452 -866.856743453007994
1501.831788780329589 -116.468795642794589 -866.730163802019433
1501.306612212110394 -116.841534342673071 -866.624791095853880
1500.906644602950109 -117.211024356839744 -866.505774221455340
1500.386648805821096 -117.588549414454235 -866.402463164428127
1499.989207204265995 -117.959774648742894 -866.284226224643589
1499.477100402636097 -118.341613190325290 -866.185514908942309
1499.469555452990335 -119.129743336622028 -867.036201102584982
1498.972242188162454 -119.459349883135417 -866.975012709046268
1498.586843823306026 -119.904062371978966 -866.836340905244697
1498.099956333933051 -120.242286425992972 -866.783757266534622
1497.705038525874897 -120.679080050550112 -866.638401764929768
1497.218049155749668 -121.015839348098325 -866.581713968544136
1496.811901120735911 -121.444781578406435 -866.429936812760957
1496.331181070756884 -121.784817783014716 -866.378989880112840
1495.910332821450993 -122.201054791300123 -866.218467377387924
1495.449338125847589 -122.557415497148668 -866.181428038673971
1495.046622430691968 -122.988791590792800 -866.032351874529922
1494.598788610079282 -123.353148091400215 -866.002853005067436
1494.573884352894538 -124.094373211022571 -866.717938406931353
1494.107095499077332 -124.514133885488661 -866.649644126565022
1493.698246494857585 -124.871203040187936 -866.521635972678496
1493.230642417189074 -125.289161024494831 -866.452299714073547
1492.814553237963537 -125.639983503456278 -866.320609316064747
1492.332377701882479 -126.046552183232677 -866.243029490429080
1491.909852799152304 -126.390361873205052 -866.105473747648148
1491.414725480011384 -126.786577825358677 -866.018509232569727
1490.989079210105501 -127.127061475596633 -865.880512435633818
1490.500596706399392 -127.527933283875711 -865.797569045136470
1490.084936483385945 -127.876610700520473 -865.665415285634026
1489.608499430487200 -128.287136593207947 -865.589935527553735
1489.365859532169452 -128.894208526555758 -866.284233409466310
1488.906114057723244 -129.241714081016482 -866.246181285147259
1488.472829048876520 -129.652862031647487 -866.078281212622983
1488.021685913028477 -130.005019003769632 -866.041766650193040
1487.607000062022507 -130.431580941879702 -865.884472255880155
1487.166062837347908 -130.792143550955473 -865.855181589581207
1486.754213966630459 -131.219548532789304 -865.700927067366365
1486.306036566950297 -131.573864466127475 -865.667954156945370
1485.892476912478969 -132.001336917998742 -865.513961678355372
1485.449222772129815 -132.357807374088793 -865.482046857251362
1485.034847893806727 -132.783477135800581 -865.327012400422632
1484.595154849195751 -133.143697372718918 -865.298300350868658
1484.136410890780098 -133.537672274139481 -865.728025537174631
1483.689567255620204 -133.973969320392882 -865.675019709440335
1483.318581201019924 -134.353989282460873 -865.570774085718881
1482.886646872083020 -134.800634617872902 -865.524669384734921
1482.533326767942981 -135.195518763179450 -865.432710759964039
1482.102078906977567 -135.642650871258638 -865.387146257308132
1481.738204271503037 -136.027601591572363 -865.286081097797933
1481.307085166417437 -136.476049617143701 -865.241018375052590
1480.935374996367273 -136.853162842107395 -865.136609851879257
1480.484310672624815 -137.285074495891365 -865.076258676502107
1480.093084240129883 -137.643506286750949 -864.956098339203436
1479.621243371102537 -138.059796520973180 -864.886244189609442
1479.224680536509595 -138.412274875578362 -864.767122801026176
1478.687339268685946 -138.811527238970257 -865.384530199972801
1478.254000798915968 -139.226199200983388 -865.215373749785840
1477.802814284332726 -139.564854626027284 -865.174420004993181
1477.366236463858513 -139.977453434224969 -865.007545799629042
1476.914116741894304 -140.315559055028359 -864.968273375575791
1476.484650340545613 -140.733088621471779 -864.804579634423021
1476.040795109369355 -141.076886675308458 -864.768187212539260
1475.622221087165599 -141.503308651372834 -864.612257565845312
1475.173522932709147 -141.841279332101692 -864.572461054542600
1474.767498612481404 -142.280050259131770 -864.422777081020172
1474.338874432561624 -142.635873229139975 -864.398770802259833
1473.947990055188939 -143.087773119286624 -864.260593893074315
1473.469755998124128 -143.502579193897589 -864.798130020152257
1473.122994642112189 -143.894710463044476 -864.707722038825750
1472.709916982775667 -144.359401620919527 -864.673226575874537
1472.373141673655937 -144.759726656473049 -864.588661631981722
1471.952357235623367 -145.217896236490105 -864.551324585278167
1471.614895458532146 -145.617734499376525 -864.466219443057298
1471.188270656565237 -146.070482110016655 -864.422678171122698
1470.840007608730275 -146.460323916336961 -864.330688013229747
1470.411296527720879 -146.911760047948974 -864.289128524076204
1470.059005780457028 -147.297577171320711 -864.194776255002921
1469.638350098304727 -147.757062668829860 -864.157940988210157
1469.295669902644477 -148.149694609542962 -864.071151495726781
1468.813364345415494 -148.589862233830218 -864.720590328731646
1468.439507870360558 -149.061128302396185 -864.597008000181404
1468.040069295838066 -149.433637066672134 -864.587520154257163
1467.665268841051784 -149.901784527586642 -864.462394067557625
1467.252851608341643 -150.264089403213575 -864.447123909955735
1466.855113323603064 -150.713690370098846 -864.306770096380205
1466.442116834099352 -151.071686783728637 -864.285011362583646
1466.028332274252534 -151.507460144283129 -864.131229427646076
1465.607720114454878 -151.857830933110051 -864.107508188883685
1465.186357531792055 -152.288398633298527 -863.951386450104451
1464.761149188122999 -152.633005080590806 -863.922039602856103
1464.338413669517195 -153.062599235444793 -863.764837467420989
1463.889763244726964 -153.385964322150244 -863.721480852542300
1463.538066870146395 -153.888015603194674 -864.226931296423800
1463.042333419084116 -154.280071932325313 -864.137080582915587
1462.606394480534618 -154.585146851452976 -863.982981525123250
1462.098588703537644 -154.967697935148749 -863.889269556962745
1461.650695422582203 -155.262014722922970 -863.728585945539862
1461.135794329236433 -155.636917405988413 -863.624866056514747
1460.704440802206818 -155.945187863239823 -863.473167528319664
1460.200432088006210 -156.328982955926392 -863.377211733753256
1459.769856137349962 -156.636636138899974 -863.226932482672964
1459.266507015993739 -157.021066843227345 -863.135119264199147
1458.823922972676428 -157.318259572794886 -862.985460215017838
1458.276575089195376 -157.666039367520568 -862.871515113394594
1457.693654032037557 -157.993589096006588 -863.331928186872688
1457.156855670917594 -158.224057144192955 -863.214025718033099
1456.574751681543148 -158.524947367704726 -862.931038064813947
1455.939610356769435 -158.669823238830929 -862.757921074744559
1455.293819609041520 -158.916931682503161 -862.446977778757855
1454.681932127997015 -159.070949092030446 -862.289757050698654
1454.065284297093967 -159.340836144763728 -861.995300888773954
1453.498028295890663 -159.532288914507433 -861.867956997721762
1452.939532212331869 -159.851703713665813 -861.616025859552110
1452.447289457432362 -160.108314526324818 -861.545677091856078
1451.953638356481861 -160.486901695881897 -861.343139882035530
1451.486897086618455 -160.766214187129549 -861.288421476953545
1450.802287793920186 -160.976711494670781 -861.557763252845007
1450.360678680105821 -161.417497220712676 -861.499614318719523
1450.031051747427227 -161.805578617077799 -861.411444656573053
1449.609655847047861 -162.264875019867191 -861.381273946981878
1449.277208437688842 -162.665763758560331 -861.298105972864846
1448.838559039453230 -163.094400529742416 -861.247143342701975
1448.472372818730037 -163.469972651274759 -861.133401492844541
1448.067633965642926 -163.922375475751267 -861.103084683914403
1447.683958970168533 -164.289388099385292 -860.980405395029834
1447.246923226696481 -164.704753531399206 -860.931946294408931
1446.831155391673747 -165.040884608937006 -860.790871895992268
1446.371390910179798 -165.435346614057551 -860.725340848304086
1445.277431426965904 -165.277189647653984 -860.828922288049966
1444.808641637036999 -165.570752319312533 -860.799138516846369
1444.397083062296588 -166.001806518230865 -860.615310374761407
1443.951745613509956 -166.289669630448657 -860.564562283322630
1443.457783539876800 -166.669148976403790 -860.359765136017813
1443.055146922896256 -166.994303048328561 -860.337775066513132
1442.577022032440482 -167.389966933478206 -860.148250260761756
1442.201114977782709 -167.740197954218388 -860.149296627269223
1441.895370690663412 -168.295381403330964 -860.067170354876907
1441.598413762668315 -168.719125530314784 -860.118233743942028
1441.293656433184879 -169.274561105720295 -860.027221395280662
1441.007168258548973 -169.704056258846379 -860.076459704756076
1440.715850393352412 -170.281946098948993 -860.040693959302871
1439.921419078978033 -170.399409526133354 -860.364970444337928
1439.640998265310373 -170.825553017427694 -860.305853069907243
1439.304977732079806 -171.366032845473853 -860.319878515564824
1439.062114626605990 -171.827100903176188 -860.287080215053834
1438.645717280514191 -172.293391757591678 -860.257212997027636
1438.329514465842749 -172.703182366340855 -860.182403845192766
1437.936011570968276 -173.174518167707618 -860.163325171679844
1437.623793767153074 -173.594426274198383 -860.092846832251439
1437.218067956430332 -174.046576972381786 -860.071416099590124
1436.893370014339325 -174.447894474139900 -859.989121007999529
1436.514712192413526 -174.930533772636579 -859.972462004685553
1436.174665504868926 -175.324305577576808 -859.872042935757236
1435.359760394146178 -175.398278520249050 -860.283740251524591
1434.958767635421282 -175.871344671009410 -860.150442889821989
1434.585911983408096 -176.214775356814243 -860.142632372694379
1434.209825639481323 -176.712178699985600 -860.016843120872409
1433.834443690530634 -177.050647832233608 -860.016713802323125
1433.481069981848577 -177.571672244682873 -859.914823954221788
1433.113512795122915 -177.915410068870074 -859.914812920446820
1432.720548849459647 -178.399900757936052 -859.781381025677661
1432.352879298962762 -178.742831355681460 -859.765579622146220
1431.934858927252208 -179.199757661457227 -859.609226546615901
1431.538769996716383 -179.516363720376603 -859.594023174859103
1431.085814185411209 -179.943625548692978 -859.434748786432920
1430.321603853898978 -180.083015664286222 -859.767505408047782
1429.914883416462999 -180.418935454783764 -859.620677753372888
1429.454545008601599 -180.803802552112018 -859.538605593947864
1429.079611189793013 -181.159756952439068 -859.414782842163277
1428.615132540898685 -181.549707501943999 -859.346349484966822
1428.266294988032314 -181.923501733602336 -859.254740481721683
1427.832863719033867 -182.356118493522729 -859.213923335013419
1427.487860876442028 -182.733576698609056 -859.119693206486318
1427.070336643652809 -183.179362677392078 -859.080116189148612
1426.742984227408670 -183.580855374970781 -858.988078249841010
1426.354618724889178 -184.043475986995304 -858.966622043103825
1426.023780218531556 -184.442832499185386 -858.879087867686621
1425.249564554698281 -184.541256822974219 -859.305901373636289
1424.897639076916221 -185.068094709632135 -859.204337324438711
1424.544990907081683 -185.418954489543410 -859.219688550606861
1424.197790369050836 -185.952872635228005 -859.124251889806033
1423.843216881606850 -186.298301568834063 -859.128431765358982
1423.501379620801345 -186.838024311799359 -859.028353778077985
1423.140837013542978 -187.176715358536285 -859.025827648488985
1422.719196754744871 -187.638702340661439 -858.875067959288117
1422.323182429003282 -187.940553966583821 -858.852702106190463
1421.882674728253505 -188.381926322835113 -858.687108100068144
1421.550261494388678 -188.746519024748352 -858.705096425382180
1421.135990166475949 -189.216068600103483 -858.558520760214151
1420.737347952376695 -189.514720249437971 -858.531270814827167
1419.975774311631994 -189.690739897040373 -858.757325394881946
1419.544042363873359 -190.101126021641392 -858.706613242071398
1419.227019573588677 -190.520853052896200 -858.623892381155656
1418.841431859177192 -190.976759137385784 -858.599403187615280
1418.546086616004686 -191.418092677212144 -858.538158893484137
1418.145149577475649 -191.860000398014336 -858.512467988990352
1417.794601530187492 -192.237088433144777 -858.412659896177502
1417.375955852625793 -192.670224785501659 -858.376650693959164
1417.028942025948254 -193.051211440434201 -858.283647750461114
1416.577806758180031 -193.450176024242410 -858.216051886897276
1416.208782867005766 -193.805310740179664 -858.092862281352950
1415.722605126297822 -194.168517174291139 -857.996502199594602
1414.889274683176609 -194.225052843092499 -858.273316417158640
1414.458726887425883 -194.482102073210513 -858.227838117462966
1414.018589351539049 -194.930139824322509 -858.070576907726149
1413.620847738435714 -195.218408534230207 -858.040431538125858
1413.175636931968711 -195.661064571711279 -857.866699168191644
1412.806207198394077 -195.976253176339924 -857.850365277875881
1412.419362962458763 -196.477161610023359 -857.722130192744544
1412.058299600424107 -196.799507404151086 -857.712780462273713
1411.690295931312448 -197.321179302682310 -857.602982071828478
1411.330331890684647 -197.644584449544880 -857.600536634845525
1410.939792472704994 -198.145713630703426 -857.478649533795419
1410.603013001438512 -198.487728303168751 -857.489210304621110
1409.885105316101999 -198.692927096514438 -857.737147805755740
1409.481787818787325 -199.151292234173525 -857.710759173494125
1409.182589692074316 -199.532896357342736 -857.639739810532205
1408.803068916630764 -200.028338559703570 -857.625598932555704
1408.535738033928055 -200.429530775780904 -857.566777339189684
1408.159028053808242 -200.945559222710642 -857.565686594664726
1407.908328144931602 -201.372742756322054 -857.540059313286406
1407.563630378977223 -201.920099266269119 -857.568170811587834
1407.319281395125017 -202.372933885325438 -857.535424011049145
1407.009620949517284 -202.951419629197801 -857.570560979921765
1406.798770058208902 -203.443815749917519 -857.566964922237162
1406.509301281334956 -204.035674563715418 -857.623629957866797
1406.301491710483333 -204.538295907960219 -857.614359821246808
1405.885821164673644 -204.997933191944981 -858.289307638504283
1405.610352813164582 -205.623849736828504 -858.253063797505092
1405.354652837006597 -206.050964208208825 -858.324560123661968
1405.024416368850780 -206.621571768720685 -858.254105603726430
1404.726085124586234 -207.005153626627418 -858.291272828958199
1404.344325220913788 -207.517238910787398 -858.174272849720865
1403.970336661614283 -207.825856804883870 -858.160397185235070
1403.531545186543326 -208.275016940304226 -858.007818749918897
1403.123280958326859 -208.544690607015070 -857.963373065464452
1402.674369238558938 -208.976485809330200 -857.791172198373033
1402.289547380795284 -209.270627170062710 -857.752275148356603
1401.891531419921421 -209.751647418884659 -857.617283384359553
1401.457516390093588 -210.219684302080964 -858.193201270065629
1401.141344512148862 -210.597992597320115 -858.115251587719627
1400.752572577614046 -211.090716573789280 -858.098655650650016
1400.499159981899311 -211.533338427268518 -858.055159413049751
1400.167966558503849 -212.085589604241989 -858.070955271587422
1399.938473419951606 -212.552296523839232 -858.043853220136498
1399.588444582325337 -213.088413151736404 -858.062951131611158
1399.329303986447030 -213.526420262280681 -858.029041038536207
1398.949724419654331 -214.030672921819018 -858.023696318439306
1398.638384692638965 -214.412239786755265 -857.945925646623436
1398.205635139850074 -214.857082432007871 -857.898778967400858
1397.860706211889010 -215.200191842225706 -857.790978473944278
1397.074423841879252 -215.287050808219078 -858.195417056507267
1396.656537667973225 -215.753148280693324 -858.052843375318616
1396.307804143632893 -216.087631155239706 -858.048358459321662
1395.927899593039001 -216.595020911035192 -857.933231892908907
1395.618611736355433 -216.970665567292315 -857.958153567130466
1395.278292381648953 -217.523101825701417 -857.876160449735835
1395.010622249640619 -217.945402141547504 -857.939438545723760
1394.699515776289445 -218.530743383687195 -857.883230500181185
1394.440925358920140 -218.960538822725937 -857.950430576577105
1394.119848941454165 -219.534968656074227 -857.881552036947596
1393.834480541932862 -219.934698378449355 -857.922867897318497
1393.480512163843741 -220.473726333157515 -857.827724813264808
1393.102515451314957 -221.011037744643886 -858.434787342698769
1392.803028185952826 -221.401897984467837 -858.359497066838003
1392.389521570404213 -221.868734204659688 -858.325464965380434
1392.046056686788233 -222.211713113267081 -858.219623947366358
1391.598944767517423 -222.642809521125344 -858.162389480921547
1391.231056175570529 -222.959008497057198 -858.041372236003667
1390.768289289925178 -223.371712271830859 -857.970623585579119
1390.394082958002627 -223.679645572854668 -857.841017696911081
1389.920257289853907 -224.079721056078029 -857.762380470992753
1389.543267438566090 -224.383287301995836 -857.630991087889356
1389.067822095065139 -224.782326208311417 -857.553494984382496
1388.688735192384229 -225.082012171790211 -857.420862305171568
1388.215724748086814 -225.483890345172995 -857.343267057491971
1387.822201825063530 -226.004125041066629 -857.937317182856759
1387.445724504806094 -226.297059651041707 -857.907415268100294
1387.011802828142663 -226.751898320596069 -857.754638544438308
1386.642538807763458 -227.051228445282561 -857.732021251568426
1386.210338687204512 -227.508568448210383 -857.582207563170527
1385.842072107479908 -227.807493169166207 -857.562390406112854
1385.410596102371073 -228.267739909198497 -857.412739617166721
1385.033008399024311 -228.553820029592885 -857.381169463225888
1384.587818847926883 -228.998387340461079 -857.222348384261409
1384.203639790067882 -229.276287593347831 -857.188013483402415
1383.754422539541793 -229.716830221267344 -857.026830293257490
1383.368302061296617 -229.992017270233532 -856.988151498436991
1382.965069198406582 -230.519867698230996 -857.471054340832779
1382.505010537169710 -230.932098599236440 -857.402843782595596
1382.129355974346936 -231.234218426051484 -857.272912095023912
1381.662861589605200 -231.639436538067514 -857.198836192014369
1381.291572574021529 -231.944540032459315 -857.069924175342521
1380.823925117617819 -232.348996469687904 -856.996148734375083
1380.449852582668882 -232.649732908973590 -856.865453223267878
1379.976455870732025 -233.047663329880038 -856.786352635856019
1379.604222875416781 -233.349648216620437 -856.655896861034648
1379.138763578807811 -233.756880889342938 -856.584243794961253
1378.775969690643933 -234.070457490725744 -856.462817718045358
1378.322813356602182 -234.489976082840712 -856.399631844210717
1377.875251762807693 -234.952522085671603 -856.949581654548865
1377.507446055516084 -235.240640126106314 -856.924107355882711
1377.075551866546448 -235.705600731866468 -856.778145007319040
1376.710143410980436 -235.994138074931186 -856.752948863356096
1376.277214133877806 -236.457084119984927 -856.604563677856163
1375.911676922431980 -236.744305545557609 -856.578865753982427
1375.474500081619226 -237.203015037115847 -856.426737598604745
1375.104211055294854 -237.483305042635664 -856.398514664098911
1374.664508206876690 -237.940279314071859 -856.245606574107114
1374.290309464653092 -238.215291750724361 -856.212298229442922
1373.851979552178364 -238.673239567495045 -856.060470536106891
1373.476498982412977 -238.946174411868071 -856.026960873573898
1373.030527640238233 -239.434313915721418 -856.481482992911197
1372.576336218063261 -239.851817947130030 -856.415874282140521
1372.223737468721993 -240.171231382055794 -856.298447022466917
1371.769208198736806 -240.589776428836274 -856.234180751976396
1371.416829313676772 -240.909401734308858 -856.118134351000208
1370.966327743120019 -241.331971464038020 -856.056230191690247
1370.618791781340406 -241.657424142618538 -855.943587880133009
1370.174817042689483 -242.085902614391841 -855.888428144381805
1369.831099688407903 -242.417736908784775 -855.779992164196415
1369.392772324537873 -242.851276640414312 -855.726053417214075
1369.049392818066508 -243.182069919435435 -855.616274996747961
1368.605536062945248 -243.609295505289822 -855.558391962018959
1368.259373037108617 -243.935721729204943 -855.446830047117601
1367.784167035660403 -244.342288918019221 -856.074947365075218
1367.347725082648594 -244.806473950092595 -855.926207188038006
1366.987116171627349 -245.087337119187055 -855.899975951131296
1366.550207614925512 -245.551247249140204 -855.752076434463788
1366.194066131895624 -245.836558842277213 -855.730969026132698
1365.764435397677289 -246.309135612405214 -855.586374454711176
1365.413383577336390 -246.600337610223278 -855.566449616731688
1364.985125779061491 -247.073887925685824 -855.422935441966047
1364.630008611813764 -247.358645276118239 -855.401025791682173
1364.202099433699914 -247.833723379619926 -855.259394255524853
1363.843163658954381 -248.112099114239811 -855.233278273869473
1363.407794441553960 -248.580718671456680 -855.086583634892463
1362.952901564352487 -249.038122045494731 -855.631972122321599
1362.607853962699664 -249.362889979760212 -855.520487044254310
1362.162028912064670 -249.787551200667963 -855.461862493328454
1361.820322541868336 -250.115857045214511 -855.352199328113556
1361.380246746766488 -250.547044282444404 -855.298899923632121
1361.044198523702107 -250.882980190258138 -855.193682826075019
1360.605147044382193 -251.313613184783208 -855.139581179641027
1360.269694180888109 -251.651139912209430 -855.034025201624900
1359.831329169539913 -252.082259679401943 -854.980463753518734
1359.492497427110266 -252.413828532109562 -854.873463161526047
1359.047916556538894 -252.838147380859652 -854.815417227345051
1358.705614826772489 -253.164862405794054 -854.706092942589180
1358.279915834830263 -253.625625071599870 -855.368705290446769
1357.846305821012720 -254.099165926627450 -855.224596387857787
1357.499120337835848 -254.382143946234578 -855.205317777674054
1357.067478619531812 -254.858249166209021 -855.061950391281698
1356.714543880822021 -255.134701169494065 -855.037346634653545
1356.277592635547535 -255.604704114240405 -854.891415819211943
1355.923585161226583 -255.876721592381955 -854.864766524523588
1355.487009411241161 -256.348103486193509 -854.717115969925658
1355.135527944525165 -256.621856184457158 -854.691246609851078
1354.699987282672510 -257.095252638975069 -854.546018892189409
1354.363136466549122 -257.387952213027916 -854.534465958047349
1353.936219687996072 -257.871137692028981 -854.397225960052083
1353.602023635358137 -258.166888403696078 -854.386954740434703
1353.195906752676365 -258.728095743864060 -854.876785697896935
1352.784046398275905 -259.192593368555322 -854.846471229455460
1352.465573017270344 -259.544497506552716 -854.752662052062306
1352.035858764349314 -259.985257459254512 -854.703485945857778
1351.702985369383441 -260.320995395420425 -854.599966280118224
1351.261836838670206 -260.747748107506766 -854.544621337576700
1350.909580978233407 -261.057607747830389 -854.424260235272413
1350.455056749342020 -261.467640015380653 -854.358402562432161
1350.098644433596746 -261.772159055263728 -854.235177569036864
1349.645493140648796 -262.183164868148538 -854.170400292852150
1349.294867727914834 -262.496629888790778 -854.052123147025327
1348.850238437514008 -262.915959969692835 -853.991229432831688
1348.414116852768984 -263.403594795780350 -854.552164560745609
1348.070138113912435 -263.677713225535626 -854.529389602264928
1347.640990486991996 -264.164215283835858 -854.391995930601297
1347.293413004918875 -264.432163968325767 -854.366395499446298
1346.852857975333791 -264.904509947036786 -854.219230613680793
1346.497434186334431 -265.162052332765711 -854.187061739973842
1346.044409790824375 -265.618376510155031 -854.031305180935078
1345.677449843280101 -265.860446898802593 -853.988863313215461
1345.220038355829274 -266.308649801793422 -853.825636925499111
1344.861026595963949 -266.562591245667761 -853.793867658007002
1344.413064988015321 -267.024954666711949 -853.642896047084605
1344.066383065844320 -267.291033191005113 -853.615991594066259
1343.587451178841775 -267.772833165291331 -854.047766998366910
1343.166232053340536 -268.222066224984133 -854.006076831918222
1342.849780428771737 -268.573010716546037 -853.914265548384492
1342.432004415479696 -269.027246442986154 -853.878501452463979
1342.123307989435716 -269.389701280254030 -853.792379532695350
1341.713029662908866 -269.852815517415934 -853.761301240718467
1341.389327090983443 -270.194944529829229 -853.662582634173759
1340.960481522837199 -270.633983161308151 -853.615704883870649
1340.626058016219076 -270.962442866799563 -853.507755261551893
1340.187483912940479 -271.395919566855810 -853.456038033637014
1339.848002659854501 -271.709827249462023 -853.341712060851819
1339.392480990308741 -272.120264920743239 -853.273054252199245
1338.903805633676029 -272.535623797107633 -853.791890814717590
1338.556313528747523 -272.791386852011385 -853.762352981110780
1338.117555350223938 -273.271074092970196 -853.617396532857242
1337.777094328370367 -273.535440756475623 -853.593385163563767
1337.345029385111047 -274.024772621407919 -853.455297619904059
1337.008815926967600 -274.293375838408679 -853.435029220488332
1336.577904055370254 -274.783469378128643 -853.296641214786632
1336.247439852759726 -275.058598611451600 -853.281697961815325
1335.823687820117357 -275.558611677265048 -853.149338200337752
1335.492059773494020 -275.830410432389726 -853.131470330519505
1335.059308362262982 -276.319255524654807 -852.992842588531971
1334.727562332110665 -276.592307165698173 -852.977698017691750
1334.297814304526128 -277.085731183616417 -852.842234628837105
1333.875181360394436 -277.597346347551309 -853.412550590421802
