# This PCD file was generated using the MATLAB® pcwrite function
# from Computer Vision Toolbox®.
# .PCD v.7 - Point Cloud Data file format
VERSION .7
FIELDS x y z
SIZE 8 8 8
TYPE F F F
COUNT 1 1 1
WIDTH 773
HEIGHT 1
VIEWPOINT 0 0 0 1 0 0 0
POINTS 773
DATA ascii
1403.215422091455821 290.732263359557010 -738.086479016024896
1403.524673604328655 291.141236161619531 -738.078127847065502
1403.660415990706042 291.400319429418005 -738.112680161534399
1403.945884961744468 291.814424977863780 -738.086052079801448
1404.066922505792263 292.076084354634645 -738.112229953961787
1403.065295726704107 288.837892383407166 -738.022412370886286
1403.269306952738589 289.193423040580683 -738.055839408364818
1403.484219610318405 289.511240977471004 -738.034999428169499
1403.686318594393242 289.869317390247147 -738.063969734035823
1403.901461403222129 290.183408514015468 -738.043370364918019
1402.698774745771516 286.836781815077700 -738.045644218349139
1402.997290328525651 287.246881844242921 -738.031773162449781
1403.128434559504512 287.509003182038782 -738.063751162572544
1403.418557782070366 287.921202086002836 -738.040543993920210
1403.544792445574103 288.184264911052423 -738.066864278586877
1402.596792378478312 284.921172217333265 -738.013858777139603
1402.813739328571955 285.275374827333849 -738.051747128220541
1403.040846274764590 285.591191054147885 -738.033955503180323
1403.242060047403356 285.947421336254251 -738.064270503074567
1403.463141411134075 286.263589571204818 -738.045226502910054
1402.529478738649459 283.323921561941802 -738.017338887173082
1402.658024736051175 283.586576256383069 -738.047595053352325
1402.952858306273811 283.997999941380954 -738.028655396515433
1403.071123561624063 284.265050913434777 -738.053717424389674
1402.348786402652195 281.342123668861461 -738.041426962782225
1402.576834004109514 281.658447290291292 -738.026438499829965
1402.773393525220627 282.016584216879494 -738.053332586643592
1402.983708679703113 282.339910385336680 -738.026617034721085
1403.165619454613989 282.701754846412882 -738.045983279960865
1402.033632604877766 279.392005134037674 -737.990745181604780
1402.174827426658794 279.653457007343036 -738.027676708955141
1402.477200381666080 280.062315465176766 -738.011665751573901
1402.601204319798626 280.329139655131030 -738.040194202141606
1402.888299285418270 280.743294835580627 -738.016935642208637
1401.886523852300797 277.395187357670807 -738.032681110978501
1402.109574206421939 277.712411424103720 -738.015639183779740
1402.309074956919176 278.071021193525326 -738.042887655702543
1402.521645349170285 278.392807805858524 -738.019261386558128
1402.710466265678406 278.753676227898382 -738.041836570275336
1401.619203292209022 275.424203780078358 -738.007895875239001
1401.769619589485046 275.684271483738939 -738.051972222579707
1402.070821085677608 276.093879198509455 -738.036218749414274
1402.200563706592447 276.360476606364102 -738.068213622675557
1402.477695761271207 276.775342293554900 -738.036397284305394
1401.354424217264295 273.449085258755531 -737.987287132089250
1401.597375880869777 273.762666502925299 -737.982063313086201
1401.820547633243677 274.116350836501738 -738.022594242932314
1402.057019830921945 274.431955361437247 -738.009189785407557
1402.263773066524209 274.788125129731668 -738.041581004354725
1401.211593062502061 271.742164215223170 -737.993507760370221
1401.532527579791122 272.144734831183769 -737.987032599196255
1401.667124324353153 272.411729487838443 -738.020537331798209
1401.964244716076337 272.820523233447489 -738.000236107794876
1401.132786408482843 269.787530836915607 -737.970997592891763
1401.344193895612534 270.141793960728307 -738.006809724919776
1401.579008514977886 270.458439236925074 -737.994486595539229
1401.768913862740646 270.820987521347092 -738.017107288869283
1401.987565933583028 271.143553551059313 -737.995579993584101
1400.730814572291820 267.763317009240041 -737.977844197735180
1401.053549791583009 268.163549180136101 -737.970831313323060
1401.193255975739930 268.431906242818968 -738.008082707640824
1401.490376367462886 268.840699988427900 -737.987781483637491
1401.622287850887915 269.110657121046870 -738.019867376124466
1400.601898740252636 265.813203421151741 -737.927808741643275
1400.827556533945881 266.164091547051498 -737.968368307963601
1401.072078748303966 266.479061159279013 -737.962366154644997
1401.287168900266124 266.834470788828526 -737.999945630229377
1401.518126799679067 267.154827797926089 -737.986461144949772
1400.226114226386926 263.775237243550464 -737.950118105701904
1400.544394413969030 264.177209790640745 -737.941074511849592
1400.697577885511691 264.442608575772397 -737.986111231957011
1400.993271502471998 264.851186421089892 -737.963830689794349
1401.138804049272267 265.119357743923786 -738.000944255595869
1400.098630283541297 261.814616878999459 -737.902217441288940
1400.339765938741493 262.162512175565439 -737.948113556420481
1400.569982402708774 262.482195521759650 -737.933216112693799
1400.782530417222461 262.839269933469950 -737.969920353069256
1401.002721455085975 263.164314714504826 -737.952065573412938
1399.697006557590157 259.780686574048502 -737.907852070817626
1400.005523054050173 260.183203359592540 -737.891640902168660
1400.157248819399229 260.451946789267140 -737.935847896680116
1400.456568352761678 260.858069553236419 -737.917789356719936
1400.610493912050970 261.126612162840956 -737.960937777893378
1399.864085762118521 258.143227051859412 -737.941269399523890
1400.084021484034338 258.467306675666237 -737.921177817492094
1400.291460711254331 258.825488842917991 -737.950834138770688
1400.518107354948825 259.148758695976085 -737.932561291575894
1399.594412462991386 256.136881987528341 -737.915469361476539
1399.738487303598504 256.408397954905354 -737.951753201682095
1400.026242443836281 256.817403402392699 -737.927064810163529
1400.162403972419270 257.094038942289444 -737.962936992311370
1400.442420508053829 257.505775885228559 -737.933929697696612
1399.412231244525628 254.101213768136120 -737.941959737733441
1399.653812881798785 254.418180699099651 -737.932301941924607
1399.886038473580811 254.769556748054129 -737.974136638175878
1400.107058626751495 255.095316234243029 -737.954090565757042
1400.310441261899996 255.454906241113690 -737.984496584876865
1399.165946509725472 252.076875655673376 -737.935112936079122
1399.299024337534092 252.356806208109589 -737.966785870830677
1399.579957016035678 252.766828736883838 -737.935284289624633
1399.728025933552090 253.041587792741353 -737.976418874496630
1400.011556845631048 253.451076964870254 -737.946639127234221
1399.099651559520680 249.994618919178635 -738.018549613894265
1399.321413148137026 250.321052068271058 -737.999916499922392
1399.503779763416333 250.688635741426623 -738.016307236416196
1399.709578023328731 251.020823375746915 -737.989860160180569
1399.888860285532246 251.389231899872357 -738.005352906659027
1398.840605808082728 247.969220776820606 -738.003334253599178
1398.988531601909926 248.245277526481232 -738.043925233565233
1399.280741773856334 248.652542597774385 -738.021267551486744
1399.412361243170380 248.933347633184269 -738.055412018023162
1399.688352770464917 249.345402032477267 -738.022703571305442
1398.609747953091528 245.930035732754448 -738.001132875540748
1398.865460633335033 246.244677006819586 -738.004277615178353
1399.080894433407138 246.603562997417214 -738.037188384547335
1399.321902271321051 246.920780380454687 -738.031958683876496
1399.528712907654608 247.283021897403728 -738.058593986796268
1398.511513390142682 244.169982352184007 -738.026977426217854
1398.815972642229553 244.571436815777531 -738.014817212791172
1398.971518429368189 244.848281572570215 -738.064480939626492
1399.265043183818761 245.253499693123558 -738.042109378238024
1398.373425514860173 242.167391197181672 -737.979173223793396
1398.598653937485324 242.522172404491130 -738.018101975395666
1398.829294005788142 242.846215184460107 -738.007981130248481
1399.041643452784456 243.205926026027583 -738.039993909602231
1399.256893339440921 243.533002677581123 -738.020932264434123
1397.942631832059988 240.110970781975936 -737.971911788202419
1398.251466159630127 240.509801796648532 -737.952336979421034
1398.408127961755326 240.787236032558411 -737.997595365924553
1398.701166596707935 241.192745647436254 -737.976047648464601
1398.865766223254695 241.467282119606892 -738.027015141704965
1397.790387096807535 238.103543151952493 -737.912610116414271
1398.008506158017099 238.459466666585911 -737.946939725898119
1398.234548723222588 238.789017678121724 -737.930943309023860
1398.442100142701292 239.149462696404726 -737.962292827771876
1398.669513386540075 239.478098182716280 -737.947429130322462
1397.436898199210418 236.013984386364370 -737.945694921751510
1397.764549405010030 236.407492716391772 -737.937892711552990
1397.913528698661594 236.688789873269002 -737.979678793695257
1398.213564502771078 237.090894329791666 -737.961037020884078
1398.352263054371178 237.376587764281567 -737.997628964721343
1397.335458210156503 233.980133850001607 -737.914795845328172
1397.545408643394012 234.340211779926875 -737.946476994379054
1397.763712603996510 234.672494286914315 -737.926161674408718
1397.982860000331584 235.028966238414313 -737.959690194770701
1398.210161051911882 235.355338873694706 -737.943133299851752
1397.051846252935320 231.859794650656966 -737.990292646988564
1397.343776596536372 232.263872755941549 -737.960100713855468
1397.457004096558649 232.559300232910459 -737.980646665626523
1397.729599858700567 232.970082900429730 -737.943956827783268
1397.855762430480809 233.261712168656288 -737.972265350537668
1397.102995686295117 230.195451997135251 -737.955105426597356
1397.342316319067550 230.522210999407378 -737.945504131871985
1397.571513653903594 230.875543324847257 -737.987287436842735
1397.791045169450172 231.208208000413748 -737.967561231391073
1396.749506307461616 228.164583431527689 -737.887311792725086
1396.898112326174441 228.450905095330143 -737.928313658884122
1397.211201813333901 228.845691840526712 -737.912680613283101
1397.362206845805531 229.131646415971403 -737.954014109745003
1397.662186553785887 229.532619446978458 -737.934525738199113
1396.578976264835546 226.062827893609040 -737.922211460392418
1396.802676564712783 226.396347580587729 -737.903428754568949
1397.005661412524660 226.758740285603238 -737.927753109026412
1397.226563606704758 227.090489435945358 -737.909159622999596
1397.429947546454969 227.455019765955086 -737.932963127357425
1396.313557880453345 223.991663044112443 -737.902435619206017
1396.458594078893384 224.281571214778893 -737.940062081896940
1396.755720237348669 224.682112445203217 -737.916615074032052
1396.888762019295427 224.976326219227843 -737.949282127827701
1397.172579178753040 225.383220003750409 -737.920589590377176
1396.134609660639853 221.884844249073154 -737.929304240203351
1396.367475339882503 222.215848340891540 -737.916819755635288
1396.577712672799635 222.575801044779809 -737.946286857117229
1396.800098390172479 222.911367682498451 -737.927218030603626
1396.994858513883628 223.276783377290030 -737.948047325893299
1395.855744268001672 219.810606970723939 -737.903894738044983
1395.996437626991337 220.104518368615743 -737.941183688765136
1396.281314053005190 220.508400045170333 -737.910540469629382
1396.415041826569677 220.804626218152322 -737.940472625756229
1396.693694102604240 221.211496332700619 -737.903885570474131
1395.915891644142448 218.023551314324777 -737.921076926759042
1396.119474803711000 218.387915376046948 -737.946270634757525
1396.332264466048400 218.724950367196527 -737.925875287032454
1396.524682324430842 219.094334737431012 -737.943918293372917
1395.612849561098301 215.880426119060701 -737.982246532036243
1395.891358061142455 216.286123765842717 -737.948417129229256
1396.019969976078755 216.586769886411588 -737.981049664882676
1396.285655596623201 216.998528592967205 -737.941150888561879
1396.418754127000284 217.296343954076917 -737.971363283711071
1395.470910487751098 213.812518666085168 -737.932217623531869
1395.685459728687874 214.172028687582497 -737.963171829547719
1395.913783348661582 214.507202274913880 -737.948959629368460
1396.111683921577423 214.872924544251248 -737.971533513408076
1396.325844914849085 215.211514171746131 -737.948969627726683
1395.093796210699793 211.689686599676349 -737.954638056321755
1395.388012723500196 212.088664604002560 -737.926385813403158
1395.523622459894796 212.388375727785672 -737.958623036324752
1395.813838476753062 212.789892997246454 -737.931967089982209
1395.951759547045185 213.089195990421189 -737.968140194416264
1394.983589037072534 209.597243606209304 -737.922303599604902
1395.183347060421056 209.964229017567334 -737.941885101760022
1395.397277250142452 210.304075296614684 -737.922381862382281
1395.591265659277724 210.674848034906745 -737.939646534407302
1395.803170762479795 211.012507056956110 -737.917294623328985
1394.680981439527386 207.439502652781499 -737.985259493119656
1394.975197952328017 207.838480657107652 -737.957007250201173
1395.112633555423145 208.140545306176506 -737.990702941182462
1395.386630927629085 208.546851903637105 -737.953996230200573
1395.518240820382061 208.851572454124351 -737.984528492317168
1394.528031069846065 205.356342622576733 -737.925633177521149
1394.735670821486565 205.719298844679884 -737.950077187678289
1394.963652097952718 206.055936394102105 -737.933931178952321
1395.154412378022244 206.426361515597762 -737.953055513436993
1395.373539034898386 206.765141081354443 -737.936995941946520
1394.428520031135122 203.621947425176188 -737.913728183753392
1394.573407991455042 203.923875966399720 -737.950655568018874
1394.866197729492796 204.322638070434522 -737.920424006940721
1395.005602322978120 204.625758550985751 -737.956121770888103
1394.279804599710815 201.458168116841364 -737.960382610147008
1394.502247065513984 201.797336341645007 -737.938859124987175
1394.702348084671485 202.165327952481675 -737.957073178307837
1394.916534242641546 202.508609550326582 -737.936505483924520
1395.108322857836583 202.879583108688735 -737.954828729287442
1394.049678113915661 199.322021219377120 -737.960146853476772
1394.169892554232774 199.635488891498824 -737.983287802857831
1394.444376045936906 200.041503994634866 -737.945757247947654
1394.557306417417749 200.358502051148605 -737.968206300248767
1394.830562354177346 200.764134985705823 -737.930086630819687
1393.844997514999704 197.171448309083928 -737.973960897574329
1394.087970533474845 197.505384523496787 -737.963975281587864
1394.287584780832731 197.871197467088507 -737.986314436217981
1394.500655576117651 198.216359747385695 -737.966850824785297
1394.678537532859536 198.594184664708848 -737.975757929640395
1393.468379105072245 195.085569594823028 -737.894989994265643
1393.645218235198172 195.378210974371427 -737.952842751738103
1393.957939561850253 195.767299549739221 -737.936580963673350
1394.113818768236797 196.069066021088133 -737.981265037254161
1394.406066290647232 196.466988193931741 -737.951010721369812
1393.228892482222818 192.938911722483283 -737.890522543599673
1393.465266771177994 193.275920558676148 -737.880411390245513
1393.668563683368120 193.642880008004681 -737.904517888432110
1393.900395260753385 193.981588178141038 -737.895980276847467
1394.107692668886102 194.346008362334999 -737.918490478458011
1393.015050966071158 190.777661569026975 -737.901495097342263
1393.189061711370414 191.074563118342724 -737.957385409793687
1393.474112192504208 191.473586556259761 -737.926136203000624
1393.632701824726610 191.777082521994430 -737.974235307994491
1393.899191395879825 192.184863963354132 -737.930149047612872
1393.009482217686354 188.962307872583324 -737.892340779046435
1393.216094286502539 189.327185819389427 -737.914284620944500
1393.439303352450224 189.671719677446617 -737.896170285529934
1393.637292257528316 190.039953150604106 -737.911838660978674
1392.616655873205218 186.801082932833822 -737.904508497346910
1392.919956504543507 187.191721946134010 -737.879711685651159
1393.081344242463274 187.496988448505192 -737.927621570848373
1393.364083389698862 187.896420017030664 -737.892436482542507
1393.513476711125122 188.205992122760165 -737.935386958844219
1392.480292063838988 184.658056228768544 -737.857644122532065
1392.696699407509186 185.021299553855897 -737.882304689282364
1392.921590564167673 185.367014469432547 -737.868406474402491
1393.131685425696560 185.730735028693573 -737.894028713597322
1393.354320692285228 186.075519338824620 -737.880342473320752
1392.139155024691490 182.469784351779964 -737.900170999550255
1392.434517831608218 182.863321128819337 -737.869665081117887
1392.574515622419312 183.179135642831227 -737.906076725086564
1392.859653783414160 183.578200122998879 -737.871223267083678
1393.000679257049796 183.892092912307817 -737.910135079311772
1392.020186433222989 180.310496386024056 -737.863255378678332
1392.243989385687655 180.670002016181172 -737.893602297359166
1392.461484933551901 181.019454626688116 -737.874017730548871
1392.668639217995405 181.385172504685272 -737.895984327253359
1392.872426674924100 181.738840044296012 -737.871675080957175
1391.582958009772938 178.154654837659194 -737.855815081003357
1391.910963744845503 178.532664336796245 -737.840353854247496
1392.076775583043400 178.839751007807706 -737.891444041448267
1392.391671538936862 179.223946792755328 -737.872127488747537
1392.535152774761855 179.541074080791645 -737.908916272632041
1391.605328468875086 176.379734667283998 -737.797859836190810
1391.846381521755120 176.717058667775575 -737.796467044596625
1392.083892565155566 177.072349368828895 -737.831538642763348
1392.323487911842221 177.413018013863621 -737.829316125573087
1391.409464241939304 174.173116961846858 -737.824567767920371
1391.547630399317768 174.494830465757559 -737.862666727690907
1391.829173575340974 174.892789482439099 -737.822441674921947
1391.960629463241730 175.217782918668064 -737.855420642474428
1392.254366275577240 175.611270063703728 -737.821545202241623
1391.234909353585181 171.952598010472741 -737.856629893464742
1391.488212791207616 172.289051726403670 -737.859132055760369
1391.705249378065218 172.650705863363385 -737.883512383488437
1391.925112355956799 173.000881768777504 -737.868710296925542
1392.118360634248347 173.375921167305137 -737.877959495741152
1390.833811284197964 169.828039319886955 -737.767189719073258
1391.013587181580533 170.134346380592177 -737.821940130754342
1391.346589511688535 170.508985273156611 -737.811833625626150
1391.513111853901592 170.820306151906010 -737.865486363837249
1391.822038323462721 171.205985370505829 -737.845764034746708
1390.585440170085803 167.631248816165765 -737.759438217124625
1390.832486569395087 167.966841030216301 -737.767049907980436
1391.060634318213033 168.329753917856408 -737.787830566488765
1391.289661370868089 168.672473904971298 -737.785929215943497
1391.519179798319556 169.034471267387204 -737.807842593876785
1390.250941234912489 165.468648295896401 -737.706976061538853
1390.431969199636569 165.777559333961051 -737.767613036417970
1390.755750054249575 166.153582396170293 -737.750361711299320
1390.918416328811645 166.471085169389994 -737.799551836230421
1391.224520832578946 166.855242204142286 -737.771420020876462
1389.963565033406667 163.280948525120408 -737.677847900380584
1390.219466052305506 163.614398722836484 -737.685373154000899
1390.465234055839801 163.968046212418017 -737.716187704010053
1390.706710060754631 164.307259485115054 -737.722872768376305
1390.942253418366818 164.666434677824896 -737.749339778815056
1389.818523773609286 161.415817269667485 -737.687762198620931
1390.149588697058789 161.788309947484549 -737.671202770582340
1390.323675588755123 162.101757569419931 -737.729780399547053
1390.637144117585194 162.483267292506696 -737.711785786067821
1389.611389843951201 159.241791383475459 -737.614962511195813
1389.857587870854104 159.594015953216910 -737.644106618541855
1390.103463463649632 159.932827585773623 -737.648674536232647
1390.346003990418922 160.288597620128314 -737.678047491320285
1390.586707628457361 160.630697774756243 -737.684469189803053
1389.205855176588557 157.037995485119382 -737.611631457608155
1389.532950535526197 157.409466883236576 -737.595518733582139
1389.704009822577518 157.727340943227091 -737.650743713885163
1390.022307310355700 158.104555944763831 -737.632262768448527
1390.197534729436484 158.420814854596983 -737.691732505760683
1389.124723126382378 154.791457366203019 -737.608491659504580
1389.379831216703451 155.140201183556030 -737.641697185730891
1389.625532102078068 155.481400893180989 -737.650172348460046
1389.856165892214904 155.841517573144586 -737.670981643442587
1390.088502334763689 156.190408572921399 -737.670063420470456
1388.689834870490131 152.593945111307278 -737.589258324034745
1389.038320176536445 152.954868497783878 -737.584643841237039
1389.233280616713500 153.264090308807113 -737.653391890540888
1389.554550265308990 153.638217608342870 -737.634115737649950
1389.728120758377372 153.957987431006700 -737.691365545725375
1388.384360085492517 150.445636594678433 -737.460256395276929
1388.643237215904719 150.790627636880004 -737.498227528611892
1388.917095066295587 151.121600989631133 -737.520866266141070
1389.176801312014732 151.467306736986870 -737.556646106713401
1389.445948814748817 151.799055308704169 -737.575017332427024
1388.009447721896549 148.210933323098459 -737.472578092565982
1388.351022886345618 148.572832748611461 -737.464754671290621
1388.539839785070171 148.888396231924560 -737.533702931861853
1388.866193708561923 149.259193967138401 -737.516177249388761
1389.043589990152213 149.578812601735819 -737.575738005926610
1388.059947127267833 146.350438663532145 -737.442077694460068
1388.334833312784212 146.681960453149827 -737.463915342867267
1388.590315330344765 147.028149925147147 -737.494603827695755
1388.853207751668833 147.366447479692511 -737.508180809826627
1387.673897955776511 144.168474870902230 -737.355124430461274
1387.850147943250704 144.493534732786372 -737.416938862513007
1388.171161623597072 144.864226713524602 -737.398727164627758
1388.358122376490883 145.183467377956049 -737.464065292321493
1388.689791378429391 145.549678897295337 -737.445229433962481
1387.489091707355328 141.883075813477944 -737.389527773579630
1387.703004596880419 142.247679638078864 -737.379461885786441
1387.911108564826009 142.618003203354817 -737.384579573812061
1388.150411897402137 142.969519751180485 -737.384415630671356
1388.370796529219660 143.332942325491729 -737.395579937404591
1387.310771343894203 139.589871121673070 -737.425664713977199
1387.457096552683424 139.931345725369511 -737.462799929760649
1387.734135019901714 140.324131339114558 -737.413250527574291
1387.878914190335536 140.666439383533884 -737.456461526352427
1388.167715618196098 141.053705883903774 -737.418233436746391
1387.219187994413915 137.245472611184539 -737.504391351210870
1387.435245234051308 137.611214351769149 -737.489119033964016
1387.649517255846831 137.977418053535757 -737.499333959401383
1387.873336960183678 138.340179945879811 -737.496979251310904
1388.083265490227859 138.707916713302382 -737.510157922158669
1386.953686962368920 134.983687657184475 -737.491321278414148
1387.085357658225803 135.337122310553355 -737.524074436485307
1387.350202489132016 135.734379795944221 -737.468175421762908
1387.483642303259330 136.086566387513585 -737.504841706540219
1387.763190671892971 136.476307440793164 -737.463919646888371
1386.828612823760068 132.643627395478973 -737.548751284193031
1387.026931197389786 133.022154036705956 -737.528198919218767
1387.216984234948995 133.400695758311201 -737.528254415787842
1387.415701048215396 133.778889862962899 -737.510482458094884
1387.605211870147286 134.156591653377120 -737.510515199857537
1386.753499241192458 130.698794292849584 -737.603851137652100
1387.007114951147742 131.100782691713334 -737.553004378541459
1387.143838990470158 131.454448325594740 -737.588657599593830
1387.398945294952682 131.856942019789358 -737.527587201372853
1386.598807340933490 128.421114586263627 -737.558614433349589
1386.808823550838497 128.788892395936841 -737.568188852987532
1387.024762831485305 129.160623800674671 -737.554369122132812
1387.227981092051778 129.531640500415506 -737.562427800762634
1387.431782832515864 129.908975202314764 -737.543105056106469
1386.284888078751919 126.107968411114996 -737.606762818298193
1386.545700177682647 126.506385383336067 -737.560212207477207
1386.693733294182039 126.856203176471240 -737.600258477712600
1386.966969832975337 127.248891625493854 -737.556996833124003
1387.118374202229916 127.597759341622293 -737.595727045805916
1386.169266938576584 123.798413882021919 -737.587361576359967
1386.355263384064074 124.178363443246155 -737.588166770770272
1386.563034689040023 124.556719424845369 -737.568397322101532
1386.745604437944166 124.938957799130208 -737.566370717950008
1386.949980630068239 125.318512210525114 -737.539318620774793
1385.838927855021211 121.482812818452373 -737.633972765171620
1386.100058437363259 121.880014181371450 -737.580757256837160
1386.241581808805677 122.237885961676341 -737.610471223733271
1386.507278962814553 122.633139637862939 -737.564280879689363
1386.642888944053766 122.993626277335579 -737.594435668930373
1385.676507579021063 119.186419253810072 -737.584728104812029
1385.870728748609963 119.563345825258011 -737.589028358390124
1386.076675491486867 119.944288604710607 -737.561197926899467
1386.262241913605521 120.325661085774868 -737.563673563972884
1386.470555434208791 120.704856998565162 -737.543926870110568
1385.600163899392555 117.261999728563978 -737.574829709253777
1385.740173468512239 117.622084727896379 -737.602867351818986
1385.989764822428697 118.026860744683518 -737.545018183224329
1386.125773895605789 118.389485009150405 -737.574652122365478
1385.368559574903657 114.933926443040036 -737.574869552869245
1385.578874321929561 115.315557965617188 -737.549372824647435
1385.767525097124008 115.696105595711686 -737.552746451736084
1385.971097338639993 116.079637272302477 -737.529881838621691
1386.152177145317637 116.463840512825982 -737.534777616199335
1385.091345666769030 112.626269027425792 -737.556552983769052
1385.234751001041786 112.987625758531863 -737.588572017459683
1385.491881087441470 113.387366386585541 -737.536952805701389
1385.634114962899275 113.749472374628283 -737.569229323607942
1385.876223028159984 114.157945044095186 -737.509298054292458
1384.813707501997897 110.311782016467134 -737.536761073470416
1385.033386848208238 110.690731675596339 -737.518952770144892
1385.220953844448559 111.072069604878209 -737.518979630239755
1385.439891755213011 111.450345601103948 -737.499758368467042
1385.625944296829857 111.831426587843737 -737.501410161612171
1384.499345956902289 108.014478475818862 -737.494075463276204
1384.659599179014094 108.369456690797278 -737.535865022583835
1384.922897319264393 108.765077455341668 -737.489343048237060
1385.063243465159758 109.131951007767668 -737.522460283210648
1385.315432400352393 109.533723506340039 -737.469634205940338
1384.133381481731703 105.739322591521159 -737.424028957916335
1384.386444539243257 106.100948474082088 -737.425979562095677
1384.606366911658824 106.464414189928902 -737.446566418817270
1384.848121544294372 106.832358074805484 -737.440822716432422
1385.053451918940482 107.203132912225385 -737.451427072934052
1383.774500550977336 103.455862267980194 -737.359886660757638
1383.927184109175414 103.819436416526571 -737.396595855792384
1384.206619633249375 104.204444457205568 -737.357281856052055
1384.368300282425253 104.562108734044784 -737.397749476138301
1384.652676957706490 104.945084904204862 -737.359642341909762
1383.915346845794375 101.391367768645182 -737.433027473628499
1384.087548825087197 101.780431539861581 -737.426109725000629
1384.289290737772262 102.174802529490307 -737.398329912925760
1384.460807377748552 102.564324063318679 -737.390845804585410
1383.660399408336616 98.981928433037069 -737.520911862817570
1383.910077789812931 99.384275330505432 -737.462759700394145
1384.044225602728602 99.761299452844639 -737.488628033138411
1384.288277493681107 100.166135983443894 -737.428702645490603
1384.412200660674898 100.548687808911325 -737.450223438664693
1383.475474229998781 96.639658208367678 -737.460054220479719
1383.686630314987269 97.007777144369243 -737.473822005846159
1383.907905376649069 97.392807141906133 -737.457231559503157
1384.107266917263587 97.767535574547765 -737.464128882233808
1384.323202388081427 98.154929979178632 -737.443551163097595
1383.098299719912120 94.290725815147880 -737.479898543594345
1383.363828585533156 94.682585214787650 -737.431168403346419
1383.526905730341923 95.046496098322166 -737.471463676774420
1383.800802443753355 95.434034814382585 -737.426772200600226
1383.957480078860499 95.800852051409436 -737.468332140301300
1382.978009799829579 91.898635252558620 -737.454172320615726
1383.181770276023371 92.270491883490479 -737.462253754051744
1383.394877362014540 92.662146457888696 -737.439713589894723
1383.590326086547520 93.039455197915515 -737.444602957991719
1383.795750664064599 93.434972693281054 -737.418590489473218
1382.695227690595402 89.482543664629247 -737.527986225772906
1382.915833616489408 89.899301494705639 -737.454863517759577
1383.058773533832436 90.278834528809739 -737.486245855776247
1383.303112324464564 90.683545833372023 -737.424106420559497
1383.451478860211637 91.058285341063424 -737.459173037540495
1382.655685900194158 87.027798231474037 -737.539301948080947
1382.803956447231485 87.431544958061465 -737.516709465634676
1382.977649125028620 87.851597993918517 -737.473002545328654
1383.128231005963926 88.254936589897568 -737.454345944395072
1383.304035145539501 88.672277601864380 -737.416485959342026
1382.611421333379894 85.005881011202007 -737.551269720057007
1382.733737903758993 85.401327690200333 -737.574562966590292
1382.952033148056216 85.820963812454522 -737.494203119683448
1383.071839164718995 86.216984890348783 -737.512170281063618
1382.431945669309926 82.564646837831901 -737.585692917827942
1382.616716620733769 82.982108684495529 -737.549439693008708
1382.779124629774742 83.377747400569376 -737.533202704766495
1382.951558821197068 83.800978812682047 -737.490056262505050
1383.111568468780206 84.199454778683219 -737.470186386578803
1382.107676412257206 80.205939552181519 -737.540679818992544
1382.290480159129402 80.568595690521136 -737.596700445654733
1382.547441957141018 80.964942042027985 -737.542541437692194
1382.694918167021115 81.348558095803583 -737.578797275181614
1382.913125731457285 81.768153175807129 -737.502041679484478
1381.317925676625237 78.125169766762269 -737.229479367385125
1381.663826172374229 78.446855571983576 -737.284561874800374
1381.963830080820117 78.758598503841654 -737.350067549636947
1382.276745957206003 79.099745710625598 -737.384870299447812
1382.528456977772294 79.442277473066042 -737.420696949310582
1380.358707828007937 76.138465999960886 -736.825056184286836
1380.564918884872895 76.493603414133929 -736.908473279882628
1380.894224266613037 76.843428638673061 -736.891612929557823
1381.143683243828491 77.169174372844793 -736.985458173760321
1381.520883726112515 77.491013464946263 -736.992195183746617
1379.724266693090613 73.956323559333441 -736.598882252187650
1379.961396805004824 74.348157190028076 -736.568605026352998
1380.150556907492728 74.725694811439610 -736.583054772954483
1380.386969444057286 75.116606426441876 -736.559963294732938
1380.594435140577843 75.484420887182694 -736.585013292547501
1379.292522238594302 72.131566303689056 -736.456897868331680
1379.561030336366457 72.517025809282131 -736.397624222006016
1379.728207331309932 72.892224985943358 -736.450910478812602
1379.991145034687634 73.281305550182935 -736.390710205997379
1378.739564420835904 69.954385370563955 -736.171446184618389
1378.946663261451477 70.321441984614978 -736.189264925207112
1379.181617439521460 70.713228082590888 -736.168644978770544
1379.380316848614711 71.085695763486285 -736.186875905229954
1379.610840507373496 71.481444046436991 -736.169522698032210
1377.963087015599285 67.792372083344674 -735.993929353417343
1378.274548410407078 68.149407165449475 -735.960347459272157
1378.472026068178366 68.513047739651199 -736.025892118806041
1378.762354136427575 68.886536313763543 -735.976446271045688
1378.937325832103852 69.260135420488609 -736.034898029683063
1377.147792514562752 65.778301437182336 -735.543309609734933
1377.394902770526414 66.113990623342090 -735.589766974775898
1377.701715717428897 66.464487411813820 -735.600667015143244
1377.961935100270694 66.791520150593669 -735.654280963510018
1378.267346437108927 67.146493009124129 -735.665197877015885
1376.373229308188911 63.621152879068688 -735.360345738003161
1376.628165367380234 64.012841812008105 -735.306639315721100
1376.769316257052651 64.408499807187184 -735.356750908140157
1377.041991834552846 64.789874001053647 -735.305023276204565
1377.245213941838301 65.145035277971260 -735.370888574570586
1376.348811116610932 61.090316546970371 -735.358955103091944
1376.337787051151508 61.596098710018339 -735.277881917159334
1376.431442103282507 62.083040824179420 -735.199695602577094
1376.502993991108269 62.535932126655382 -735.147219057847906
1376.656671966537942 62.982908779915249 -735.070037814071156
1376.290006390367125 58.460904540462991 -735.596709608350466
1376.485285692974458 58.891039042354066 -735.501481998414874
1376.449970447578380 59.407241699107601 -735.438803154269522
1376.561717657475356 59.891636150837144 -735.287226221597052
1376.525604880503806 60.406033719171546 -735.222287820269798
1376.365450404182639 56.349990106655753 -735.557860555455136
1376.531569608237078 56.794302075973803 -735.502315282594509
1376.549944205406064 57.283615666635910 -735.416498188733613
1376.667738285547557 57.757336688231817 -735.339025998224770
1376.638959197416625 53.543562368050857 -735.861335245214491
1376.560651999918719 54.092592023603174 -735.787163797456628
1376.626561431824030 54.608539643072845 -735.607086068848162
1376.632654749710127 55.102091640199887 -735.569572245115751
1376.738664581427429 55.591653197168057 -735.407926374987710
1376.649756075530604 50.897858938625291 -736.008761431164658
1376.777839925960507 51.371281975271472 -735.916831308194105
1376.840140711462936 51.834058315365610 -735.851757021275944
1376.917150357078299 52.339563485214057 -735.748684097812429
1376.910502671704080 52.847662522480107 -735.653593801763009
1376.423519033556204 48.402137477136591 -736.004525753007783
1376.491494066665155 48.861735055591794 -736.009470734888964
1376.656786075425543 49.312935227394462 -735.895164351192989
1376.761920278960133 49.745673900514703 -735.918186806445419
1376.943086631961478 50.186138221699878 -735.821901150985013
1376.420461435539892 45.749595862770718 -736.163189941471046
1376.472712490495724 46.276479767544686 -736.036729804808715
1376.540297423014181 46.738230436598769 -735.971494934568000
1376.601944008584951 47.258871933090290 -735.851573630238704
1376.657049057412678 47.727689861396641 -735.778901937649835
1376.270659310624978 43.186721889968055 -736.201111618828691
1376.357402849469509 43.639023327786276 -736.203933044553537
1376.506270574726386 44.100961449491365 -736.084632733820172
1376.585013121685733 44.558341417578902 -736.090646752697012
1376.702865217969702 45.040796772329031 -735.953068757325013
1375.896447614493354 40.770212832255197 -736.139797976026557
1376.075017075409733 41.215958410294377 -736.086236603315456
1376.179897230708320 41.652864672255987 -736.049371109975482
1376.342528527618697 42.109056705873058 -735.989991966298589
1376.447353239088898 42.547301703888479 -735.948978616842737
1375.691553453588995 38.745703867080294 -736.119806172295739
1375.868870810273393 39.189037890690372 -736.009309604931786
1375.929165944112810 39.662379036390632 -735.997577252927613
1376.109224658064250 40.103882009552024 -735.889346124413350
1375.635268918017118 36.153539576940375 -736.109173376172521
1375.716330485619892 36.609861806873653 -736.055025089102628
1375.816182670105718 37.112196997292472 -735.964124658944002
1375.897299681536879 37.567180491171825 -735.914124227989760
1376.007208875857941 38.063063863485070 -735.821730283816350
1375.531642829731027 33.481667143339791 -736.301516898889417
1375.647868931433550 33.964072866086212 -736.160569381717210
1375.678568792030092 34.463929498737912 -736.138985704476454
1375.794221746674793 34.949055835127808 -735.999165025061302
1375.848573211181247 35.431042546399908 -735.985721830584225
1375.610754947947953 30.777794081313800 -736.396949614369532
1375.678053633087529 31.242140137974275 -736.330627534316818
1375.778792333612046 31.751261782201709 -736.231779895368163
1375.829586779022065 32.225462716037896 -736.151018583483165
1375.901135064973914 32.754984957026636 -736.038652985337080
1375.220000045088909 28.284090568157637 -736.415092486006188
1375.435218007644607 28.701239349336220 -736.324086350460448
1375.492886585680026 29.188555042794292 -736.298576727551790
1375.639100633531143 29.652365257198653 -736.173406726759140
1375.700068268620953 30.136813347516920 -736.175134816952323
1375.053765839255448 25.733181421593940 -736.358972529421180
1375.204572757008691 26.143515881204905 -736.340401066045274
1375.387679162762652 26.595814640485059 -736.288411935426097
1375.511463223851024 27.024969098482472 -736.263016046840221
1375.659609600818840 27.501455781457992 -736.195192126893176
1374.451329456594067 23.383245336479376 -736.246253372790079
1374.657781131722004 23.805047337812596 -736.148428165889300
1374.777186344388156 24.252295821693622 -736.174737515831566
1374.986028657338920 24.672102603575581 -736.093594752619083
1375.118455317021926 25.110653597825944 -736.130664937096867
1374.196757475837785 21.397642379993044 -736.061800527543255
1374.368492941553768 21.860910069688146 -736.007717532867900
1374.500453354248975 22.285068081917700 -735.971920548710500
1374.682022749884709 22.742298574583856 -735.906355130319298
1373.792306186571977 18.952809127121725 -735.964747455380575
1373.852328051966197 19.447472499578168 -735.963516909966643
1374.024656537250848 19.893335099284684 -735.834616064970533
1374.130650891499954 20.353711902034433 -735.827732102329264
1374.317156183044517 20.789341654556210 -735.738734977043009
1374.024324666006578 16.041657620898661 -736.244379202055256
1374.045344876577019 16.618922895697722 -736.101086013936083
1374.001111911214821 17.170124727555674 -735.969781142892543
1373.994830089076004 17.765493196302089 -735.808828021127852
1373.998554087118919 18.281587806053665 -735.698821325268455
1374.097694528004013 13.234208625195265 -736.432548379449941
1374.202567100534452 13.702248464012371 -736.433215541001687
1374.374027163145001 14.149328772305751 -736.324006394717344
1374.444362006623351 14.640975645454034 -736.320217880282712
1374.547504146146821 15.136729785930584 -736.174109971082771
1374.204123057990728 10.386142269460834 -736.629105304218342
1374.241043429802176 10.959833825561930 -736.502527778251874
1374.317221246928966 11.424259674668463 -736.441416709642795
1374.458589724826197 11.919399894815513 -736.373917766466093
1374.604256923855019 12.334402654802261 -736.349447976556689
1374.211365621736832 7.592776446827941 -736.774486117238894
1374.374542365582556 8.031290404313211 -736.827286236940836
1374.534009316301763 8.487616639103692 -736.706515166998997
1374.582352091086250 9.003503167078918 -736.683601069513429
1374.604100068978141 9.560437526992700 -736.482384449365327
1373.670279415493269 5.818198991559484 -736.462833335404866
1373.871398400046473 6.177892846391103 -736.455452253677549
1374.120766851805001 6.613182607704061 -736.463145905723877
1374.336820177636127 6.964103378871812 -736.467681132763346
1373.823034829433027 2.858994450747957 -736.801306154433746
1373.782919837767849 3.460357553298536 -736.566073961212624
1373.649899236640522 4.113986907681806 -736.439601985489730
1373.722376466635296 4.630422450206026 -736.260799386812209
1373.805130635545083 5.127063476909882 -736.260144365090582
1374.741816324922638 -0.579205391710843 -737.358272606143601
1374.771752157688297 -0.074641323104458 -737.269026118178658
1374.812468038891893 0.504929751334089 -737.142607875857038
1374.746011548984370 1.079157728002087 -736.998539325447155
1374.716242601494059 1.711453394567968 -736.825227528841197
1374.734215213715288 -3.443050611441720 -737.602371801440768
1374.894535792138868 -2.983787862716383 -737.484706887415314
1374.991515102913127 -2.495213804275352 -737.486803108688036
1375.138671110630639 -2.025955872116185 -737.357833755221009
1375.197750467834794 -1.508726409674296 -737.337138287294465
1374.570998546276542 -6.096021712361789 -737.550157156458226
1374.716292470366852 -5.675994445449817 -737.524903150565706
1374.883961767449819 -5.187403401058191 -737.467957649311302
1375.015118881837680 -4.756797962063217 -737.433046891833783
1375.177703904024611 -4.264877353349675 -737.374350920161760
1374.229298179623129 -8.723506615902068 -737.602096339274112
1374.410752084605292 -8.280697359184444 -737.500295378863825
1374.545027270460650 -7.814497546266466 -737.527459719656122
1374.737852767781987 -7.380187058394313 -737.424451365920959
1374.867219038463190 -6.910575596653132 -737.442656733875992
1374.092135287381325 -11.412847888022100 -737.568413053021004
1374.237030771834498 -10.992488084534841 -737.540378639846836
1374.374451692390721 -10.475544012275236 -737.465263346318352
1374.501066747509412 -10.040769077767209 -737.428624873229182
1374.654624399588783 -9.536907890942530 -737.364018811688084
1373.835246953820842 -13.537077299195687 -737.458346626744742
1374.044151892603850 -13.122498714203914 -737.524749315389272
1374.277076485134785 -12.719514611972158 -737.446775334896415
1374.428286586389731 -12.262122434500839 -737.483407207476944
1373.170960261910977 -15.884248472352624 -737.223186084213467
1373.437819987364492 -15.463550799385985 -737.220873425607465
1373.673767551345918 -15.112960658435895 -737.246975059466195
1373.938483578988780 -14.690930739883470 -737.246567572932690
1374.159122874452805 -14.329013169913651 -737.263269939422344
1372.763898063613397 -18.436064531157854 -737.138168870572258
1372.923388985098882 -17.980563917946995 -737.179142401055287
1373.159484958265239 -17.580833786004007 -737.101763416749122
1373.329486773051258 -17.133456263527819 -737.148171696614327
1373.569208662619758 -16.736181212933218 -737.075014714510871
1372.598870701702253 -21.184717549175559 -737.189141874678853
1372.813718828581841 -20.720094329774952 -737.156376966586777
1372.973635681872793 -20.310936729270509 -737.139955868350739
1373.185654771624741 -19.844523501671972 -737.108529772618795
1373.349628216987639 -19.436773740786521 -737.091358976541642
1372.361101968726871 -23.884046742080841 -737.196734556485239
1372.514107657553268 -23.418270332919803 -737.232673232308116
1372.727723485624210 -23.001419536533945 -737.146896281022237
1372.863277208121872 -22.522983452767448 -737.175340861548420
1373.069498079699770 -22.099924799881705 -737.080576300951179
1372.142957874418244 -26.608338884720240 -737.218670341095503
1372.352348451463058 -26.135361594072492 -737.183370746602122
1372.520290156735655 -25.731530876626152 -737.172355761274275
1372.735306572003083 -25.263513380678717 -737.142130649386445
1372.893510403152959 -24.851976292859092 -737.122643023178853
1371.964002499184289 -29.370495514020035 -737.264989001677804
1372.108953056899281 -28.893361515396919 -737.293369899774802
1372.308718974947169 -28.466057772964973 -737.195722149334870
1372.443955518636358 -27.981465756757700 -737.224229112612647
1372.644948991628326 -27.553779845746760 -737.127170476691617
1371.943459551977639 -31.625923546125534 -737.244910202678398
1372.105146175839991 -31.215543845851016 -737.229100973767572
1372.304424951522606 -30.732305839474350 -737.187845779792497
1372.452516981310055 -30.310508035925750 -737.162402554103210
1371.631122105570284 -34.344383123893010 -737.318446305477210
1371.841685816598556 -33.925327698232650 -737.224019256850625
1372.002599050716753 -33.456418346407077 -737.263515374592544
1372.210676720426136 -33.034566713070092 -737.169059689491860
1372.357166245162261 -32.554953963124547 -737.201113103217835
1371.408145168704550 -37.048332699228979 -737.232013170853634
1371.575657502909053 -36.640608900372911 -737.219367370807618
1371.781161080872153 -36.157889170420447 -737.180754755597945
1371.943533044051264 -35.747967232758015 -737.165511886399372
1372.140581746663884 -35.258497699907366 -737.123163600944736
1371.057569887349018 -39.749865749228263 -737.284280506806908
1371.286127128031922 -39.345100228551814 -737.200671565664379
1371.449408444478649 -38.872997420249419 -737.241648906272530
1371.668283254866765 -38.461864265253610 -737.153715180366135
1371.819196879881474 -37.980431346667785 -737.188948896095781
1370.871332326401671 -42.500696663566941 -737.217906235256351
1371.026333845485169 -42.082345060624220 -737.198973205425773
1371.240603710875803 -41.604278550826280 -737.167179661571254
1371.397948147588522 -41.187425461756902 -737.147731663308605
1371.609962775210761 -40.707819395835031 -737.112848836676108
1370.546611600424740 -45.238433616478460 -737.287314726298291
1370.772084488032078 -44.832843244832077 -737.202807795140416
1370.921310255604112 -44.344338868581076 -737.236971174196469
1371.135929906402907 -43.929161444109241 -737.145095685109709
1371.273760221539305 -43.431909946223811 -737.171867751430341
1370.544432426005187 -47.613931345909805 -737.218593983628807
1370.760671934086986 -47.132338843060040 -737.185501255359100
1370.922128406700267 -46.718232329663465 -737.169451415370986
1371.123258866083233 -46.225478666081585 -737.128349623372969
1370.250773774789423 -50.346753745412684 -737.201417290714062
1370.422361076165089 -49.871850531020925 -737.248732480522904
1370.649491542085343 -49.467300910635799 -737.163144221220932
1370.805826671072737 -48.979938841708702 -737.201906742395295
1371.011593006884368 -48.557679077763396 -737.103515175781922
1369.910679033825090 -53.049994333882239 -737.154870448322299
1370.163248597024904 -52.595975441521489 -737.142046486186246
1370.348412117376483 -52.201077585558437 -737.138284985077689
1370.582645807413883 -51.731304826123051 -737.112709106910870
1370.749871894240187 -51.320985639660535 -737.098976097053082
1369.518546877287008 -55.716471507837355 -737.079176422527325
1369.709069015882733 -55.252880642243952 -737.136811624526899
1369.965962391132962 -54.873922393832856 -737.066915744046582
1370.147201191372460 -54.401826268925902 -737.119705311182770
1370.392269090817990 -54.012697979040240 -737.044088560629916
1369.246038200524708 -58.492975106470908 -737.071727589024135
1369.502091208738420 -58.037643440085674 -737.059280766803795
1369.691366764990107 -57.645492159795538 -737.058917423969660
1369.927083325919284 -57.174372074553162 -737.036167462697108
1370.099592907460419 -56.767548720700233 -737.025575126897706
1368.841232054908687 -61.162941429640057 -736.987362010759853
1369.061885263341992 -60.719243766192108 -737.061318334044927
1369.334030158679070 -60.355214533885658 -737.003276379580029
1369.534203796138627 -59.894430757777172 -737.066385958906949
1369.786012896492593 -59.512142945044104 -736.994739608008672
1368.519345406710499 -63.912806221642938 -736.953489900051295
1368.788021422303927 -63.465839508313309 -736.949023505085165
1368.999346447980997 -63.091856134195382 -736.962029829274570
1369.262795064988950 -62.640262162740555 -736.955269358984765
1369.465123651989188 -62.257898755346048 -736.961216000741615
1368.356474034206485 -66.167548743928933 -736.959643677112581
1368.646101827302573 -65.819739731062384 -736.907946225380783
1368.855384747998642 -65.362602975629898 -736.976507427228626
1369.126445864381822 -64.997783444136189 -736.915118705769828
1368.067082654565183 -68.918065435846870 -736.834718659364512
1368.294974435134009 -68.558587867004235 -736.856563772878417
