# This PCD file was generated using the MATLAB® pcwrite function
# from Computer Vision Toolbox®.
# .PCD v.7 - Point Cloud Data file format
VERSION .7
FIELDS x y z
SIZE 8 8 8
TYPE F F F
COUNT 1 1 1
WIDTH 794
HEIGHT 1
VIEWPOINT 0 0 0 1 0 0 0
POINTS 794
DATA ascii
34.915999999999997 -101.316000000000003 1032.714999999999918
35.527000000000001 -101.272000000000006 1032.583000000000084
36.072000000000003 -101.293000000000006 1032.474999999999909
36.683000000000000 -101.247000000000000 1032.320999999999913
37.225000000000001 -101.263999999999996 1032.165999999999940
37.834000000000003 -101.213999999999999 1031.967000000000098
38.374000000000002 -101.224999999999994 1031.761999999999944
38.979999999999997 -101.164000000000001 1031.481999999999971
0.011000000000000 -101.335999999999999 1039.217000000000098
39.600999999999999 -100.682000000000002 1032.529999999999973
40.162999999999997 -100.578999999999994 1032.217000000000098
40.741999999999997 -100.623999999999995 1031.938000000000102
41.305999999999997 -100.531000000000006 1031.681000000000040
41.889000000000003 -100.585999999999999 1031.513999999999896
42.454000000000001 -100.500000000000000 1031.311999999999898
43.037999999999997 -100.552999999999997 1031.153000000000020
43.603999999999999 -100.466999999999999 1031.000000000000000
44.189999999999998 -100.528000000000006 1030.910000000000082
44.753999999999998 -100.438999999999993 1030.723999999999933
45.340000000000003 -100.500000000000000 1030.603000000000065
45.901000000000003 -100.406999999999996 1030.380000000000109
-0.574000000000000 -100.707999999999998 1038.748000000000047
46.499000000000002 -100.019000000000005 1031.336999999999989
47.106000000000002 -99.965000000000003 1031.096999999999980
47.640000000000001 -99.975999999999999 1030.874000000000024
48.247999999999998 -99.921999999999997 1030.648999999999887
48.783000000000001 -99.933000000000007 1030.443999999999960
49.390999999999998 -99.879999999999995 1030.224999999999909
49.926000000000002 -99.894000000000005 1030.039999999999964
50.533000000000001 -99.843000000000004 1029.811999999999898
51.067999999999998 -99.858000000000004 1029.638999999999896
51.674999999999997 -99.804000000000002 1029.412000000000035
52.209000000000003 -99.819000000000003 1029.239000000000033
-0.560000000000000 -99.891000000000005 1037.096000000000004
52.850000000000001 -99.209999999999994 1029.971999999999980
53.439000000000000 -99.265000000000001 1029.856999999999971
53.988999999999997 -99.168000000000006 1029.547000000000025
54.578000000000003 -99.224999999999994 1029.413000000000011
55.131000000000000 -99.132999999999996 1029.182000000000016
55.720999999999997 -99.191000000000003 1029.077999999999975
56.274000000000001 -99.100999999999999 1028.864000000000033
56.863000000000000 -99.159999999999997 1028.740999999999985
57.417000000000002 -99.069999999999993 1028.542999999999893
58.005000000000003 -99.128000000000000 1028.405999999999949
58.558000000000000 -99.040999999999997 1028.204999999999927
59.146000000000001 -99.096999999999994 1028.053000000000111
-1.179000000000000 -99.197999999999993 1034.926999999999907
59.774000000000001 -98.596999999999994 1028.894999999999982
60.302000000000000 -98.605999999999995 1028.676999999999907
60.911000000000001 -98.558000000000007 1028.497000000000071
61.439999999999998 -98.570999999999998 1028.301999999999907
62.049999999999997 -98.525000000000006 1028.136999999999944
62.579999999999998 -98.539000000000001 1027.961999999999989
63.191000000000003 -98.494000000000000 1027.808999999999969
63.719999999999999 -98.509000000000000 1027.633000000000038
64.329999999999998 -98.463999999999999 1027.478000000000065
64.858000000000004 -98.477000000000004 1027.291999999999916
65.466999999999999 -98.429000000000002 1027.116999999999962
65.992999999999995 -98.441999999999993 1026.920000000000073
-1.151000000000000 -98.451999999999998 1033.538999999999987
66.638000000000005 -97.828999999999994 1027.627999999999929
67.221000000000004 -97.873999999999995 1027.359999999999900
67.766000000000005 -97.783000000000001 1027.153999999999996
68.349999999999994 -97.831000000000003 1026.905999999999949
68.896000000000001 -97.745000000000005 1026.718000000000075
69.480999999999995 -97.793000000000006 1026.489000000000033
70.027000000000001 -97.706000000000003 1026.321999999999889
70.616000000000000 -97.757999999999996 1026.134000000000015
71.161000000000001 -97.674999999999997 1025.976000000000113
71.751999999999995 -97.730999999999995 1025.814000000000078
72.298000000000002 -97.649000000000001 1025.671000000000049
-1.731000000000000 -97.694999999999993 1031.728000000000065
72.870000000000005 -97.186999999999998 1025.859999999999900
73.478999999999999 -97.140000000000001 1025.692999999999984
74.001999999999995 -97.152000000000001 1025.498000000000047
74.611000000000004 -97.106999999999999 1025.342000000000098
75.132999999999996 -97.123000000000005 1025.152000000000044
75.745000000000005 -97.079999999999998 1025.009000000000015
76.269000000000005 -97.096999999999994 1024.858999999999924
76.882000000000005 -97.052999999999997 1024.736000000000104
77.408000000000001 -97.072000000000003 1024.609999999999900
78.021000000000001 -97.031999999999996 1024.506000000000085
78.549000000000007 -97.052999999999997 1024.405999999999949
79.162000000000006 -97.013000000000005 1024.303000000000111
-1.716000000000000 -96.912000000000006 1030.356999999999971
79.754999999999995 -96.453000000000003 1024.493999999999915
80.301000000000002 -96.376999999999995 1024.425999999999931
80.896000000000001 -96.435000000000002 1024.292999999999893
81.438000000000002 -96.358999999999995 1024.182000000000016
82.030000000000001 -96.412000000000006 1024.012999999999920
82.567999999999998 -96.326999999999998 1023.860999999999990
83.159999999999997 -96.376999999999995 1023.679999999999950
83.694000000000003 -96.293000000000006 1023.500000000000000
84.286000000000001 -96.346999999999994 1023.312999999999988
84.819999999999993 -96.263999999999996 1023.145999999999958
85.412000000000006 -96.313999999999993 1022.956999999999994
85.945999999999998 -96.228999999999999 1022.789999999999964
-2.328000000000000 -96.195999999999998 1027.838999999999942
86.503000000000000 -95.748000000000005 1022.748000000000047
87.114000000000004 -95.706000000000003 1022.609000000000037
87.632999999999996 -95.721999999999994 1022.457999999999970
88.244000000000000 -95.677999999999997 1022.317000000000007
88.765000000000001 -95.698999999999998 1022.193999999999960
89.379000000000005 -95.659000000000006 1022.083999999999946
89.900999999999996 -95.680000000000007 1021.975999999999999
90.516000000000005 -95.641000000000005 1021.884999999999991
91.037999999999997 -95.662999999999997 1021.788999999999987
91.655000000000001 -95.626999999999995 1021.712999999999965
92.177999999999997 -95.650999999999996 1021.630999999999972
-2.299000000000000 -95.411000000000001 1025.954999999999927
92.790999999999997 -94.998000000000005 1021.881999999999948
93.394000000000005 -95.058000000000007 1021.812000000000012
93.930000000000007 -94.983999999999995 1021.730000000000018
94.531999999999996 -95.046000000000006 1021.630999999999972
95.064999999999998 -94.969999999999999 1021.530999999999949
95.665999999999997 -95.025999999999996 1021.412000000000035
96.200000000000003 -94.948999999999998 1021.322000000000003
96.802000000000007 -95.007000000000005 1021.217999999999961
97.334000000000003 -94.932000000000002 1021.123000000000047
97.938000000000002 -94.991000000000000 1021.028999999999996
98.469999999999999 -94.915000000000006 1020.931000000000040
99.072000000000003 -94.974000000000004 1020.833999999999946
-2.871000000000000 -94.587000000000003 1023.176000000000045
99.668000000000006 -94.412999999999997 1021.029999999999973
100.185000000000002 -94.433999999999997 1020.922000000000025
100.804000000000002 -94.399000000000001 1020.852999999999952
101.319000000000003 -94.418999999999997 1020.720000000000027
101.936999999999998 -94.382000000000005 1020.636999999999944
102.448999999999998 -94.402000000000001 1020.485000000000014
103.063000000000002 -94.358999999999995 1020.365999999999985
103.572999999999993 -94.373999999999995 1020.193999999999960
104.182000000000002 -94.328999999999994 1020.027000000000044
104.688000000000002 -94.341999999999999 1019.813999999999965
105.293000000000006 -94.293999999999997 1019.615999999999985
105.795000000000002 -94.304000000000002 1019.381999999999948
-3.444000000000000 -93.897999999999996 1022.109000000000037
106.400999999999996 -93.647000000000006 1019.589000000000055
106.986999999999995 -93.686999999999998 1019.304999999999950
107.498000000000005 -93.597999999999999 1019.063999999999965
108.087000000000003 -93.644000000000005 1018.811000000000035
108.599000000000004 -93.560000000000002 1018.591999999999985
109.189999999999998 -93.605000000000004 1018.354000000000042
109.701999999999998 -93.518000000000001 1018.145999999999958
110.292000000000002 -93.561000000000007 1017.899999999999977
110.799000000000007 -93.462999999999994 1017.635999999999967
111.385999999999996 -93.495999999999995 1017.317000000000007
111.881000000000000 -93.408000000000001 1016.996999999999957
112.465999999999994 -93.456999999999994 1016.591000000000008
-3.465000000000000 -93.272999999999996 1021.292000000000030
113.004999999999995 -92.847999999999999 1016.283999999999992
113.472999999999999 -92.844999999999999 1015.721999999999980
114.046000000000006 -92.769000000000005 1015.195000000000050
114.515000000000001 -92.759000000000000 1014.701999999999998
115.096999999999994 -92.686000000000007 1014.285999999999945
115.579999999999998 -92.685000000000002 1013.926000000000045
116.173000000000002 -92.622000000000000 1013.663999999999987
116.662999999999997 -92.626000000000005 1013.417000000000030
117.268000000000001 -92.572000000000003 1013.215000000000032
117.771000000000001 -92.591999999999999 1013.080000000000041
118.385000000000005 -92.555999999999997 1012.960000000000036
-3.999000000000000 -92.537000000000006 1020.618000000000052
118.927999999999997 -91.962999999999994 1012.719000000000051
119.433000000000007 -91.882000000000005 1012.640999999999963
120.054000000000002 -91.944000000000003 1012.546000000000049
120.548000000000002 -91.855000000000004 1012.375000000000000
121.159999999999997 -91.915000000000006 1012.217999999999961
121.665000000000006 -91.837999999999994 1012.128000000000043
122.272000000000006 -91.894999999999996 1011.942000000000007
122.762000000000000 -91.804000000000002 1011.741999999999962
123.367999999999995 -91.858000000000004 1011.538999999999987
123.831999999999994 -91.765000000000001 1011.304999999999950
124.445999999999998 -91.808999999999997 1010.986999999999966
124.951999999999998 -91.695999999999998 1010.792000000000030
-4.008000000000000 -91.897000000000006 1019.174999999999955
125.510999999999996 -91.242999999999995 1010.620999999999981
126.099999999999994 -91.195999999999998 1010.498000000000047
126.608000000000004 -91.210999999999999 1010.241999999999962
127.197000000000003 -91.162000000000006 1010.124000000000024
127.706999999999994 -91.171999999999997 1009.885999999999967
128.290999999999997 -91.120000000000005 1009.732999999999947
128.817000000000007 -91.153999999999996 1009.623000000000047
129.419000000000011 -91.131000000000000 1009.615000000000009
129.949999999999989 -91.170000000000002 1009.534999999999968
130.586999999999989 -91.126000000000005 1009.515999999999963
131.070999999999998 -91.149000000000001 1009.509000000000015
131.698000000000008 -91.108000000000004 1009.552999999999997
-4.574000000000000 -91.164000000000001 1017.360999999999990
132.242999999999995 -90.521000000000001 1009.365000000000009
132.747000000000014 -90.459999999999994 1009.373000000000047
133.387000000000000 -90.539000000000001 1009.366999999999962
133.884999999999991 -90.462000000000003 1009.313999999999965
134.519000000000005 -90.530000000000001 1009.278999999999996
135.020999999999987 -90.454999999999998 1009.245000000000005
135.652999999999992 -90.522000000000006 1009.206000000000017
136.150000000000006 -90.439999999999998 1009.140999999999963
136.776000000000010 -90.507000000000005 1009.061000000000035
137.276999999999987 -90.439999999999998 1009.028000000000020
137.899000000000001 -90.507000000000005 1008.913999999999987
-4.592000000000000 -90.507999999999996 1016.053999999999974
138.423000000000002 -89.906000000000006 1008.585000000000036
138.933999999999997 -89.923000000000002 1008.472999999999956
139.530000000000001 -89.884000000000000 1008.413999999999987
140.070999999999998 -89.918999999999997 1008.331999999999994
140.668000000000006 -89.878000000000000 1008.267000000000053
141.205999999999989 -89.909999999999997 1008.288000000000011
141.800999999999988 -89.866000000000000 1008.220000000000027
142.323000000000008 -89.897000000000006 1008.100999999999999
142.913999999999987 -89.864000000000004 1008.014999999999986
143.437000000000012 -89.897000000000006 1007.902000000000044
144.020000000000010 -89.843999999999994 1007.758000000000038
144.527999999999992 -89.850999999999999 1007.543999999999983
-5.116000000000000 -89.664000000000001 1014.152000000000044
145.031000000000006 -89.152000000000001 1007.349000000000046
145.639999999999986 -89.212000000000003 1007.128000000000043
146.110999999999990 -89.137000000000000 1006.928999999999974
146.727000000000004 -89.192999999999998 1006.745000000000005
147.197000000000003 -89.099000000000004 1006.554999999999950
147.819999999999993 -89.147999999999996 1006.418000000000006
148.300000000000011 -89.063000000000002 1006.296000000000049
148.923000000000002 -89.125000000000000 1006.162000000000035
149.407000000000011 -89.052000000000007 1006.066000000000031
150.037000000000006 -89.122000000000000 1005.975000000000023
150.526000000000010 -89.049999999999997 1005.926000000000045
151.156000000000006 -89.113000000000000 1005.836999999999989
-5.126000000000000 -89.079999999999998 1013.278000000000020
151.701999999999998 -88.528999999999996 1005.683999999999969
152.218999999999994 -88.554000000000002 1005.639000000000010
152.828000000000003 -88.510000000000005 1005.582999999999970
153.353000000000009 -88.549000000000007 1005.553999999999974
153.953000000000003 -88.506000000000000 1005.489000000000033
154.485000000000014 -88.548000000000002 1005.455000000000041
155.074000000000012 -88.506000000000000 1005.361999999999966
155.588999999999999 -88.530000000000001 1005.219000000000051
156.168000000000006 -88.480000000000004 1005.066000000000031
156.677999999999997 -88.500000000000000 1004.889000000000010
157.259999999999991 -88.454999999999998 1004.755999999999972
-5.689000000000000 -88.378000000000000 1011.836000000000013
157.800999999999988 -87.872000000000000 1004.587999999999965
158.271999999999991 -87.793000000000006 1004.442000000000007
158.899000000000001 -87.849000000000004 1004.320000000000050
159.369000000000000 -87.760000000000005 1004.191000000000031
160.006000000000000 -87.835999999999999 1004.105999999999995
160.485000000000014 -87.763000000000005 1004.038999999999987
161.128999999999991 -87.832999999999998 1004.010999999999967
161.606999999999999 -87.756000000000000 1003.928999999999974
162.235000000000014 -87.811000000000007 1003.803999999999974
162.709000000000003 -87.727999999999994 1003.702999999999975
163.338999999999999 -87.787999999999997 1003.585000000000036
163.801999999999992 -87.712000000000003 1003.423999999999978
-5.707000000000000 -87.763999999999996 1010.899000000000001
164.344999999999999 -87.230000000000004 1003.168000000000006
164.938999999999993 -87.179000000000002 1002.932000000000016
165.421999999999997 -87.191000000000003 1002.750000000000000
166.014999999999986 -87.134000000000000 1002.558999999999969
166.502999999999986 -87.150000000000006 1002.407000000000039
167.103000000000009 -87.109999999999999 1002.255999999999972
167.599999999999994 -87.141999999999996 1002.110000000000014
168.198000000000008 -87.105000000000004 1001.996999999999957
168.710000000000008 -87.132999999999996 1001.903999999999996
169.300999999999988 -87.088999999999999 1001.793999999999983
169.824999999999989 -87.117000000000004 1001.721999999999980
170.407000000000011 -87.069000000000003 1001.605999999999995
-6.230000000000000 -86.983000000000004 1009.633000000000038
170.959000000000003 -86.489000000000004 1001.520999999999958
171.419999999999987 -86.409999999999997 1001.392000000000053
172.049000000000007 -86.466999999999999 1001.246999999999957
172.503999999999991 -86.387000000000000 1001.135999999999967
173.140999999999991 -86.450000000000003 1001.033000000000015
173.603000000000009 -86.391000000000005 1000.961999999999989
174.244000000000000 -86.460999999999999 1000.914999999999964
174.721000000000004 -86.397000000000006 1000.908000000000015
175.372999999999990 -86.454999999999998 1000.942999999999984
175.875000000000000 -86.388999999999996 1001.009000000000015
176.532000000000011 -86.457999999999998 1001.095000000000027
177.051999999999992 -86.409999999999997 1001.235000000000014
-6.240000000000000 -86.409000000000006 1008.811000000000035
177.657000000000011 -85.954999999999998 1001.384000000000015
178.328000000000003 -85.944000000000003 1001.615000000000009
178.870000000000005 -85.995000000000005 1001.804999999999950
179.543000000000006 -85.986999999999995 1002.043999999999983
180.074000000000012 -86.031000000000006 1002.173000000000002
180.728000000000009 -86.010999999999996 1002.299999999999955
181.246000000000009 -86.048000000000002 1002.355999999999995
181.890999999999991 -86.019000000000005 1002.407000000000039
182.388000000000005 -86.043000000000006 1002.374000000000024
183.014000000000010 -86.001000000000005 1002.294999999999959
183.488000000000000 -86.021000000000001 1002.158000000000015
-6.800000000000000 -85.727999999999994 1007.544999999999959
184.105999999999995 -85.399000000000001 1002.519000000000005
184.709000000000003 -85.445999999999998 1002.277000000000044
185.161000000000001 -85.364000000000004 1002.063999999999965
185.763000000000005 -85.402000000000001 1001.826000000000022
186.223000000000013 -85.319999999999993 1001.652000000000044
186.843999999999994 -85.372000000000000 1001.503000000000043
187.318999999999988 -85.308000000000007 1001.416000000000054
187.957999999999998 -85.378000000000000 1001.366999999999962
188.445999999999998 -85.325999999999993 1001.360000000000014
189.096000000000004 -85.391000000000005 1001.361999999999966
189.581999999999994 -85.323999999999998 1001.350999999999999
190.229000000000013 -85.382000000000005 1001.328999999999951
-7.360000000000000 -85.072999999999993 1006.490000000000009
190.751000000000005 -84.796000000000006 1001.081000000000017
191.231999999999999 -84.814999999999998 1000.962999999999965
191.846000000000004 -84.769999999999996 1000.826999999999998
192.313999999999993 -84.790999999999997 1000.676000000000045
192.935000000000002 -84.751999999999995 1000.549999999999955
193.405000000000001 -84.775000000000006 1000.427999999999997
194.032999999999987 -84.741000000000000 1000.361999999999966
194.521999999999991 -84.772000000000006 1000.317999999999984
195.163000000000011 -84.744000000000000 1000.336000000000013
195.671999999999997 -84.781000000000006 1000.378000000000043
196.330000000000013 -84.757999999999996 1000.500999999999976
196.858000000000004 -84.795000000000002 1000.615000000000009
-7.336000000000000 -84.340999999999994 1005.309999999999945
197.442000000000007 -84.150999999999996 1000.804999999999950
198.133999999999986 -84.227000000000004 1000.995999999999981
198.657999999999987 -84.180999999999997 1001.198999999999955
199.334000000000003 -84.251999999999995 1001.302999999999997
199.835000000000008 -84.197999999999993 1001.390999999999963
200.490000000000009 -84.263999999999996 1001.384999999999991
200.971000000000004 -84.203999999999994 1001.370000000000005
201.606999999999999 -84.260000000000005 1001.269999999999982
202.073000000000008 -84.191999999999993 1001.182999999999993
202.695999999999998 -84.241000000000000 1001.014000000000010
203.150000000000006 -84.168000000000006 1000.874000000000024
-7.932000000000000 -83.780000000000001 1004.219000000000051
203.778999999999996 -83.713999999999999 1001.065000000000055
204.379999999999995 -83.668999999999997 1000.898000000000025
204.838999999999999 -83.683000000000007 1000.676000000000045
205.437000000000012 -83.634000000000000 1000.495999999999981
205.895000000000010 -83.649000000000001 1000.273000000000025
206.495000000000005 -83.605000000000004 1000.101999999999975
206.959000000000003 -83.623999999999995 999.904999999999973
207.567000000000007 -83.581999999999994 999.778999999999996
208.038000000000011 -83.600999999999999 999.619000000000028
208.651999999999987 -83.561000000000007 999.515999999999963
209.122999999999990 -83.582999999999998 999.363000000000056
209.738000000000000 -83.543000000000006 999.261999999999944
-7.900000000000000 -83.081000000000003 1003.022000000000048
210.376000000000005 -83.006000000000000 999.605999999999995
210.830999999999989 -82.936000000000007 999.491999999999962
211.451999999999998 -82.981999999999999 999.307999999999993
211.901999999999987 -82.909999999999997 999.173999999999978
212.520000000000010 -82.957999999999998 998.971000000000004
212.966000000000008 -82.887000000000000 998.822999999999979
213.582999999999998 -82.933000000000007 998.619000000000028
214.027999999999992 -82.858999999999995 998.467999999999961
214.645999999999987 -82.903999999999996 998.264000000000010
215.086999999999989 -82.829999999999998 998.101999999999975
215.705999999999989 -82.876999999999995 997.903999999999996
216.146999999999991 -82.804000000000002 997.743000000000052
-8.452999999999999 -82.406000000000006 1001.710000000000036
216.776999999999987 -82.346999999999994 997.913999999999987
217.372999999999990 -82.299999999999997 997.735000000000014
217.830999999999989 -82.316999999999993 997.529999999999973
218.429000000000002 -82.272999999999996 997.361999999999966
218.891999999999996 -82.292000000000002 997.179999999999950
219.494000000000000 -82.248000000000005 997.030999999999949
219.961000000000013 -82.268000000000001 996.870999999999981
220.566000000000003 -82.227000000000004 996.735000000000014
221.034999999999997 -82.247000000000000 996.582999999999970
221.639999999999986 -82.203999999999994 996.451000000000022
222.110000000000014 -82.224999999999994 996.298999999999978
-8.429000000000000 -81.697999999999993 1000.674999999999955
222.686000000000007 -81.584999999999994 996.491999999999962
223.312999999999988 -81.632999999999996 996.322999999999979
223.756000000000000 -81.563000000000002 996.193999999999960
224.383999999999986 -81.613000000000000 996.027000000000044
224.825999999999993 -81.543000000000006 995.898000000000025
225.455999999999989 -81.588999999999999 995.736999999999966
225.894000000000005 -81.518000000000001 995.600000000000023
226.525000000000006 -81.566999999999993 995.442000000000007
226.962999999999994 -81.498000000000005 995.307000000000016
227.593999999999994 -81.546999999999997 995.149000000000001
228.032000000000011 -81.477000000000004 995.014999999999986
228.663999999999987 -81.525999999999996 994.861999999999966
-9.020000000000000 -81.132000000000005 999.528999999999996
229.257000000000005 -80.972999999999999 994.981999999999971
229.725999999999999 -80.995999999999995 994.842999999999961
230.332999999999998 -80.953999999999994 994.724000000000046
230.806000000000012 -80.977000000000004 994.599000000000046
231.413999999999987 -80.936999999999998 994.486999999999966
231.884999999999991 -80.959999999999994 994.356999999999971
232.491000000000014 -80.920000000000002 994.234000000000037
232.960000000000008 -80.941999999999993 994.097999999999956
233.562999999999988 -80.900000000000006 993.964000000000055
234.030000000000001 -80.921999999999997 993.820000000000050
234.633999999999986 -80.879000000000005 993.692999999999984
235.100999999999999 -80.902000000000001 993.551000000000045
-8.987000000000000 -80.441999999999993 998.322999999999979
235.657999999999987 -80.257000000000005 993.671000000000049
236.298000000000002 -80.308000000000007 993.538000000000011
236.739000000000004 -80.242999999999995 993.447999999999979
237.379999999999995 -80.293999999999997 993.318999999999960
237.818999999999988 -80.227000000000004 993.219000000000051
238.461000000000013 -80.277000000000001 993.091000000000008
238.895999999999987 -80.207999999999998 992.980000000000018
239.533999999999992 -80.257000000000005 992.832999999999970
239.967000000000013 -80.188999999999993 992.716000000000008
240.604999999999990 -80.239999999999995 992.572000000000003
241.038999999999987 -80.173000000000002 992.460000000000036
241.680000000000007 -80.222999999999999 992.326000000000022
-9.535000000000000 -79.756000000000000 996.866999999999962
242.269000000000005 -79.668999999999997 992.428999999999974
242.744000000000000 -79.694999999999993 992.325000000000045
243.355999999999995 -79.656999999999996 992.234000000000037
243.832999999999998 -79.683000000000007 992.136999999999944
244.443000000000012 -79.644000000000005 992.043999999999983
244.917000000000002 -79.668999999999997 991.932999999999993
245.525000000000006 -79.628000000000000 991.826000000000022
245.994000000000000 -79.652000000000001 991.703999999999951
246.600999999999999 -79.611999999999995 991.591999999999985
247.068000000000012 -79.634000000000000 991.457999999999970
247.673000000000002 -79.593000000000004 991.342999999999961
-9.507000000000000 -79.040999999999997 995.650999999999954
248.264000000000010 -79.042000000000002 991.452999999999975
248.693000000000012 -78.977000000000004 991.341000000000008
249.334000000000003 -79.025000000000006 991.197999999999979
249.760999999999996 -78.956999999999994 991.081000000000017
250.402999999999992 -79.007000000000005 990.938999999999965
250.830999999999989 -78.941000000000003 990.831000000000017
251.475999999999999 -78.989000000000004 990.700000000000045
251.913000000000011 -78.924000000000007 990.625999999999976
252.564999999999998 -78.977000000000004 990.522000000000048
253.004999999999995 -78.915999999999997 990.462999999999965
253.663999999999987 -78.969999999999999 990.385999999999967
254.105999999999995 -78.906999999999996 990.336000000000013
-10.093999999999999 -78.483000000000004 994.537000000000035
254.738000000000000 -78.447999999999993 990.432999999999993
255.350999999999999 -78.409999999999997 990.350000000000023
255.822000000000003 -78.436000000000007 990.238000000000056
256.425999999999988 -78.394999999999996 990.120000000000005
256.884999999999991 -78.417000000000002 989.964000000000055
257.480999999999995 -78.370999999999995 989.813999999999965
257.935000000000002 -78.391999999999996 989.644999999999982
258.531000000000006 -78.349000000000004 989.496999999999957
258.990999999999985 -78.370999999999995 989.346999999999980
259.591999999999985 -78.328000000000003 989.220000000000027
260.059000000000026 -78.352000000000004 989.096999999999980
260.663000000000011 -78.313000000000002 988.985999999999990
-10.061999999999999 -77.807000000000002 993.469000000000051
261.238000000000000 -77.756000000000000 989.032000000000039
261.661000000000001 -77.691999999999993 988.929999999999950
262.309000000000026 -77.742000000000004 988.793999999999983
262.725999999999999 -77.677000000000007 988.673999999999978
263.365999999999985 -77.724000000000004 988.509999999999991
263.774000000000001 -77.653999999999996 988.356999999999971
264.406000000000006 -77.697000000000003 988.168000000000006
264.817000000000007 -77.626999999999995 988.027000000000044
265.456000000000017 -77.673000000000002 987.855999999999995
265.870999999999981 -77.606999999999999 987.730999999999995
266.521000000000015 -77.659000000000006 987.602999999999952
-10.609000000000000 -77.153000000000006 992.288999999999987
267.076000000000022 -77.099999999999994 987.576999999999998
267.550000000000011 -77.126000000000005 987.493000000000052
268.168000000000006 -77.087999999999994 987.432999999999993
268.649999999999977 -77.116000000000000 987.370999999999981
269.269999999999982 -77.081000000000003 987.321000000000026
269.744000000000028 -77.108999999999995 987.235000000000014
270.355000000000018 -77.072000000000003 987.150999999999954
270.824000000000012 -77.099999999999994 987.039999999999964
271.428999999999974 -77.060000000000002 986.934999999999945
271.891000000000020 -77.081000000000003 986.804999999999950
272.487000000000023 -77.037000000000006 986.668000000000006
272.947999999999979 -77.058999999999997 986.532000000000039
-10.577999999999999 -76.445999999999998 991.106999999999971
273.442999999999984 -76.406999999999996 986.490999999999985
274.098999999999990 -76.459999999999994 986.373000000000047
274.517999999999972 -76.397999999999996 986.287000000000035
275.180999999999983 -76.450000000000003 986.195000000000050
275.603999999999985 -76.388000000000005 986.125000000000000
276.269000000000005 -76.439999999999998 986.039999999999964
276.692999999999984 -76.378000000000000 985.975999999999999
277.358999999999980 -76.430999999999997 985.894000000000005
277.781000000000006 -76.369000000000000 985.823999999999955
278.444000000000017 -76.421000000000006 985.727999999999952
278.863999999999976 -76.358999999999995 985.653000000000020
279.526999999999987 -76.409000000000006 985.554999999999950
-11.162000000000001 -75.885999999999996 989.951999999999998
280.095000000000027 -75.850999999999999 985.576000000000022
280.565999999999974 -75.876999999999995 985.484000000000037
281.180000000000007 -75.840999999999994 985.414999999999964
281.651000000000010 -75.870000000000005 985.318999999999960
282.262000000000000 -75.831999999999994 985.240000000000009
282.728999999999985 -75.858000000000004 985.131999999999948
283.334999999999980 -75.817999999999998 985.038999999999987
283.798000000000002 -75.843999999999994 984.916000000000054
284.401999999999987 -75.805000000000007 984.817999999999984
284.865000000000009 -75.829999999999998 984.696000000000026
285.471999999999980 -75.790999999999997 984.605000000000018
-11.660000000000000 -75.102999999999994 988.238000000000056
286.021000000000015 -75.230999999999995 984.559999999999945
286.434000000000026 -75.165999999999997 984.480999999999995
287.093999999999994 -75.213999999999999 984.361999999999966
287.502000000000010 -75.152000000000001 984.268000000000029
288.158999999999992 -75.201999999999998 984.139999999999986
288.564999999999998 -75.138999999999996 984.038999999999987
289.221000000000004 -75.188000000000002 983.903000000000020
289.625000000000000 -75.123999999999995 983.798999999999978
290.281000000000006 -75.171000000000006 983.663000000000011
290.687000000000012 -75.108000000000004 983.567999999999984
291.350000000000023 -75.158000000000001 983.455000000000041
291.761000000000024 -75.096000000000004 983.379999999999995
-11.670999999999999 -74.558999999999997 987.620000000000005
292.375999999999976 -74.625000000000000 983.342999999999961
292.992999999999995 -74.588999999999999 983.291000000000054
293.476999999999975 -74.620999999999995 983.243000000000052
294.095000000000027 -74.587999999999994 983.197000000000003
294.576000000000022 -74.619000000000000 983.138000000000034
295.192000000000007 -74.581000000000003 983.085000000000036
295.670000000000016 -74.611000000000004 983.017000000000053
296.279999999999973 -74.572999999999993 982.945000000000050
296.747999999999990 -74.599000000000004 982.841999999999985
297.351999999999975 -74.558999999999997 982.750999999999976
297.814999999999998 -74.584999999999994 982.634000000000015
298.415000000000020 -74.545000000000002 982.528000000000020
-12.208000000000000 -73.882999999999996 986.023000000000025
298.966000000000008 -73.986000000000004 982.493000000000052
299.369000000000028 -73.924000000000007 982.408000000000015
300.033000000000015 -73.972999999999999 982.283999999999992
300.432999999999993 -73.909999999999997 982.192000000000007
301.091999999999985 -73.957999999999998 982.052999999999997
301.495000000000005 -73.897999999999996 981.971000000000004
302.153000000000020 -73.944000000000003 981.828999999999951
302.550000000000011 -73.879999999999995 981.731999999999971
303.202999999999975 -73.924999999999997 981.572000000000003
303.598000000000013 -73.863000000000000 981.470000000000027
304.249000000000024 -73.909000000000006 981.301000000000045
304.634000000000015 -73.844999999999999 981.168000000000006
-12.220000000000001 -73.311000000000007 985.339000000000055
305.232000000000028 -73.370999999999995 981.057000000000016
305.815999999999974 -73.326999999999998 980.908000000000015
306.254999999999995 -73.347999999999999 980.716000000000008
306.831999999999994 -73.302000000000007 980.547000000000025
307.269000000000005 -73.322999999999993 980.349000000000046
307.846000000000004 -73.278000000000006 980.179999999999950
308.286999999999978 -73.299999999999997 979.994000000000028
308.865000000000009 -73.254000000000005 979.828999999999951
309.312999999999988 -73.275999999999996 979.669999999999959
309.894999999999982 -73.231999999999999 979.519999999999982
310.346999999999980 -73.257000000000005 979.371999999999957
-12.718999999999999 -72.567999999999998 984.066000000000031
310.822999999999979 -72.611000000000004 979.345000000000027
311.473999999999990 -72.655000000000001 979.173000000000002
311.848000000000013 -72.588999999999999 979.020999999999958
312.500000000000000 -72.632000000000005 978.841000000000008
312.860999999999990 -72.563999999999993 978.664999999999964
313.519000000000005 -72.608000000000004 978.485000000000014
313.875999999999976 -72.542000000000002 978.315000000000055
314.547000000000025 -72.587999999999994 978.159999999999968
314.930000000000007 -72.525999999999996 978.080000000000041
315.613999999999976 -72.575000000000003 977.956999999999994
316.016000000000020 -72.519999999999996 977.938999999999965
316.721000000000004 -72.572000000000003 977.883000000000038
-12.730000000000000 -72.027000000000001 983.466000000000008
317.242000000000019 -72.009000000000000 977.750000000000000
317.786000000000001 -72.043999999999997 977.749000000000024
318.375999999999976 -72.012000000000000 977.769999999999982
318.927000000000021 -72.046000000000006 977.789999999999964
319.521000000000015 -72.016000000000005 977.823999999999955
320.038000000000011 -72.049000000000007 977.796000000000049
320.629000000000019 -72.016999999999996 977.780999999999949
321.091000000000008 -72.043000000000006 977.655999999999949
321.678999999999974 -72.004000000000005 977.557999999999993
322.098999999999990 -72.022999999999996 977.346000000000004
322.661000000000001 -71.974000000000004 977.134000000000015
323.052999999999997 -71.989000000000004 976.851999999999975
-13.268000000000001 -71.387000000000000 982.331999999999994
323.418999999999983 -71.320999999999998 976.519000000000005
323.980999999999995 -71.340999999999994 976.019000000000005
324.220000000000027 -71.254000000000005 975.543000000000006
324.742999999999995 -71.263999999999996 974.926000000000045
324.942000000000007 -71.167000000000002 974.325000000000045
-13.279000000000000 -70.820999999999998 981.640999999999963
-13.781000000000001 -70.126999999999995 980.904999999999973
-13.789999999999999 -69.569999999999993 980.085000000000036
-14.324999999999999 -68.938999999999993 979.009000000000015
-14.336000000000000 -68.379999999999995 978.386999999999944
-14.832000000000001 -67.671000000000006 977.359000000000037
-14.840999999999999 -67.122000000000000 976.628000000000043
-15.381000000000000 -66.531000000000006 976.008000000000038
-15.906000000000001 -65.878000000000000 974.514000000000010
-15.875000000000000 -65.233999999999995 973.889999999999986
-16.434999999999999 -64.661000000000001 972.225999999999999
-16.405000000000001 -64.039000000000001 971.605000000000018
-16.925999999999998 -63.393999999999998 970.164999999999964
-16.893999999999998 -62.759000000000000 969.535999999999945
-17.442000000000000 -62.161999999999999 967.448999999999955
-17.414000000000001 -61.548999999999999 966.950000000000045
-17.939000000000000 -60.938000000000002 965.885999999999967
-17.905999999999999 -60.305999999999997 965.260999999999967
-18.466000000000001 -59.771000000000001 964.044999999999959
-18.434999999999999 -59.152000000000001 963.384999999999991
-18.954000000000001 -58.536999999999999 962.163000000000011
-18.908000000000001 -57.881000000000000 961.047000000000025
-19.465000000000000 -57.347999999999999 959.799999999999955
-19.934999999999999 -56.639000000000003 958.380999999999972
-19.943000000000001 -56.106000000000002 957.727999999999952
-20.446999999999999 -55.469999999999999 956.070000000000050
-20.451000000000001 -54.930000000000000 955.432000000000016
-20.908000000000001 -54.209000000000003 953.684999999999945
-20.920999999999999 -53.689000000000000 953.201000000000022
-21.427000000000000 -53.076999999999998 951.865000000000009
-21.437000000000001 -52.560000000000002 951.506999999999948
-21.902000000000001 -51.875000000000000 950.274999999999977
-21.916000000000000 -51.363000000000000 949.835000000000036
-22.428999999999998 -50.776000000000003 948.899999999999977
-22.428000000000001 -50.259999999999998 948.177999999999997
-22.713999999999999 -49.210999999999999 939.701000000000022
-23.250000000000000 -48.667000000000002 938.192000000000007
-23.238000000000000 -48.107999999999997 938.438999999999965
-23.768000000000001 -47.576000000000001 938.490000000000009
-23.736000000000001 -46.984999999999999 938.193999999999960
-24.335999999999999 -46.597999999999999 939.336000000000013
-24.279000000000000 -45.954000000000001 937.769999999999982
-24.742999999999999 -45.322000000000003 935.422000000000025
-24.469999999999999 -44.298999999999999 926.061000000000035
-25.093000000000000 -43.966000000000001 928.418000000000006
-25.047000000000001 -43.347999999999999 927.182999999999993
-25.486000000000001 -42.698000000000000 924.330000000000041
-25.452000000000002 -42.119999999999997 924.019999999999982
-25.965000000000000 -41.597999999999999 922.284999999999968
-25.945000000000000 -41.030999999999999 922.120000000000005
-26.446999999999999 -40.488000000000000 921.552999999999997
-26.951000000000001 -39.948000000000000 921.035999999999945
-26.965000000000000 -39.466999999999999 921.005999999999972
-27.436000000000000 -38.863999999999997 920.812999999999988
-27.465000000000000 -38.387000000000000 920.898000000000025
-27.978000000000002 -37.854999999999997 920.705000000000041
-27.998000000000001 -37.384000000000000 920.908000000000015
-28.478999999999999 -36.796999999999997 921.062999999999988
-28.518000000000001 -36.331000000000003 921.445000000000050
-29.045999999999999 -35.822000000000003 921.754999999999995
-29.061000000000000 -35.350000000000001 921.875000000000000
-29.521000000000001 -34.719000000000001 920.788000000000011
-29.466000000000001 -34.142000000000003 918.403000000000020
-29.783999999999999 -33.415999999999997 912.609000000000037
-29.782000000000000 -32.923999999999999 912.073999999999955
-30.195000000000000 -32.274000000000001 910.405999999999949
-30.684999999999999 -31.770000000000000 908.470000000000027
-30.643999999999998 -31.190999999999999 907.702999999999975
-31.117999999999999 -30.643000000000001 906.634000000000015
-31.070000000000000 -30.081000000000000 906.083999999999946
-31.576000000000001 -29.603000000000002 904.738000000000056
-31.542999999999999 -29.036999999999999 904.230000000000018
-32.000000000000000 -28.481999999999999 902.754999999999995
-31.949999999999999 -27.925999999999998 902.201000000000022
-32.438000000000002 -27.436000000000000 900.442000000000007
-32.402000000000001 -26.872000000000000 899.840000000000032
-32.853000000000002 -26.321000000000002 898.322000000000003
-32.802000000000000 -25.765000000000001 897.740000000000009
-33.302999999999997 -25.297000000000001 896.482999999999947
-33.718000000000004 -24.687999999999999 895.248000000000047
-33.720999999999997 -24.196000000000002 894.533999999999992
-34.185000000000002 -23.661000000000001 893.520999999999958
-34.174999999999997 -23.187999999999999 892.927000000000021
-34.587000000000003 -22.587000000000000 891.721000000000004
-34.594000000000001 -22.099000000000000 891.118000000000052
-35.049999999999997 -21.570000000000000 889.953999999999951
-35.042000000000002 -21.100000000000001 889.452999999999975
-35.460000000000001 -20.501000000000001 888.466000000000008
-35.472000000000001 -20.021000000000001 887.999000000000024
-35.933000000000000 -19.501999999999999 887.044999999999959
-35.930000000000000 -19.038000000000000 886.673000000000002
-36.341999999999999 -18.449999999999999 885.649000000000001
-36.359999999999999 -17.972999999999999 885.302000000000021
-36.826000000000001 -17.460000000000001 884.537000000000035
-37.283999999999999 -16.942000000000000 883.587999999999965
-37.241000000000000 -16.414000000000001 883.337999999999965
-37.744999999999997 -15.964000000000000 882.490999999999985
-37.720999999999997 -15.416000000000000 882.217999999999961
-38.179000000000002 -14.904999999999999 881.318999999999960
-38.133000000000003 -14.384000000000000 881.009000000000015
-38.616999999999997 -13.944000000000001 879.764999999999986
-38.597000000000001 -13.393000000000001 879.542000000000030
-39.124000000000002 -12.891000000000000 879.509000000000015
-39.094000000000001 -12.369000000000000 879.585000000000036
-39.600000000000001 -11.940000000000000 879.591000000000008
-39.591999999999999 -11.403000000000000 879.666000000000054
-40.081000000000003 -10.912000000000001 879.542000000000030
-40.034999999999997 -10.397000000000000 879.263000000000034
-40.561999999999998 -9.970000000000001 879.024000000000001
-40.973999999999997 -9.398999999999999 878.206000000000017
-40.951999999999998 -8.925000000000001 877.033999999999992
-41.384999999999998 -8.417999999999999 875.740999999999985
-41.343000000000004 -7.961000000000000 874.676000000000045
-41.729999999999997 -7.390000000000000 873.601999999999975
-41.750999999999998 -6.915000000000000 873.116999999999962
-42.161000000000001 -6.417000000000000 871.480999999999995
-42.149999999999999 -5.970000000000000 871.032000000000039
-42.548999999999999 -5.399000000000000 869.768000000000029
-42.545999999999999 -4.935000000000000 869.297000000000025
-42.979999999999997 -4.438000000000000 867.826999999999998
-42.960999999999999 -3.992000000000000 867.614000000000033
-43.359000000000002 -3.434000000000000 866.311000000000035
-43.363999999999997 -2.962000000000000 866.092999999999961
-43.798000000000002 -2.471000000000000 865.057000000000016
-44.252000000000002 -1.982000000000000 864.052999999999997
-44.183999999999997 -1.477000000000000 863.777000000000044
-44.665999999999997 -1.053000000000000 861.966000000000008
-44.601999999999997 -0.524000000000000 861.796000000000049
-45.024000000000001 -0.036000000000000 859.318999999999960
-44.923000000000002 0.468000000000000 859.364000000000033
-45.347000000000001 0.886000000000000 857.379000000000019
-45.340000000000003 1.416000000000000 857.445000000000050
-45.762999999999998 1.891000000000000 856.304999999999950
-45.719000000000001 2.393000000000000 856.182000000000016
-46.183000000000000 2.808000000000000 855.032000000000039
-46.162999999999997 3.335000000000000 854.827999999999975
-46.581000000000003 3.808000000000000 853.654999999999973
-46.982999999999997 4.279000000000000 852.235999999999990
-46.981999999999999 4.715000000000000 852.082999999999970
-47.331000000000003 5.244000000000000 850.556000000000040
-47.360999999999997 5.707000000000000 850.447000000000003
-47.765999999999998 6.175000000000000 849.129999999999995
-47.768000000000001 6.606000000000000 849.011999999999944
-48.119000000000000 7.135000000000000 847.611999999999966
-48.148000000000003 7.594000000000000 847.451000000000022
-48.542999999999999 8.057000000000000 846.037000000000035
-48.542999999999999 8.486000000000001 845.890999999999963
-48.881000000000000 9.003000000000000 844.311000000000035
-48.906999999999996 9.464000000000000 844.102999999999952
-49.311000000000000 9.925000000000001 842.884000000000015
-49.305999999999997 10.355000000000000 842.687000000000012
-49.652999999999999 10.864000000000001 841.307000000000016
-50.091000000000001 11.256000000000000 839.937999999999988
-50.079000000000001 11.778000000000000 839.852999999999952
-50.463000000000001 12.223000000000001 838.400999999999954
-50.418999999999997 12.702000000000000 838.296000000000049
-50.863999999999997 13.103000000000000 837.119000000000028
-50.847000000000001 13.622000000000000 836.966999999999985
-51.241000000000000 14.066000000000001 835.692000000000007
-51.189999999999998 14.551000000000000 835.498000000000047
-51.616999999999997 14.930999999999999 834.085000000000036
-51.600999999999999 15.446999999999999 833.922000000000025
-51.990000000000002 15.888999999999999 832.629999999999995
-51.939000000000000 16.370999999999999 832.460000000000036
-52.372000000000000 16.750000000000000 831.163999999999987
-52.351999999999997 17.265999999999998 830.958999999999946
-52.749000000000002 17.702000000000002 829.833999999999946
-53.103999999999999 18.126000000000001 828.102999999999952
-53.109000000000002 18.548999999999999 828.081999999999994
-53.435000000000002 19.033999999999999 826.631999999999948
-53.470999999999997 19.492999999999999 826.571000000000026
-53.850999999999999 19.922999999999998 825.265999999999963
-53.850999999999999 20.341000000000001 825.183999999999969
-54.182000000000002 20.826000000000001 823.844000000000051
-54.212000000000003 21.277999999999999 823.692999999999984
-54.597000000000001 21.701000000000001 822.510999999999967
-54.591000000000001 22.120000000000001 822.357999999999947
-54.915999999999997 22.600000000000001 820.975999999999999
-54.944000000000003 23.052000000000000 820.788000000000011
-55.332999999999998 23.478999999999999 819.706000000000017
-55.326000000000001 23.890999999999998 819.527000000000044
-55.661999999999999 24.367999999999999 818.364000000000033
-56.078000000000003 24.728000000000002 817.062000000000012
-56.063000000000002 25.231999999999999 816.895999999999958
-56.423000000000002 25.646000000000001 815.456000000000017
-56.372999999999998 26.109000000000002 815.340000000000032
-56.798000000000002 26.474000000000000 814.227999999999952
-56.784999999999997 26.980000000000000 814.073999999999955
-57.159999999999997 27.396999999999998 812.970000000000027
-57.107999999999997 27.858000000000001 812.741999999999962
-57.526000000000003 28.213999999999999 811.592999999999961
-57.508000000000003 28.713999999999999 811.351999999999975
-57.850000000000001 29.113000000000000 809.806000000000040
-57.801000000000002 29.571000000000002 809.647000000000048
-58.223999999999997 29.927000000000000 808.548000000000002
-58.527999999999999 30.379000000000001 807.100000000000023
-58.567999999999998 30.827999999999999 807.086000000000013
-58.917999999999999 31.231999999999999 805.756999999999948
-58.924999999999997 31.635999999999999 805.767000000000053
-59.250999999999998 32.094999999999999 804.590000000000032
-59.286000000000001 32.542999999999999 804.491999999999962
-59.627000000000002 32.933999999999997 803.052999999999997
-59.628999999999998 33.338999999999999 803.023000000000025
-59.948000000000000 33.784999999999997 801.809999999999945
-59.985999999999997 34.234999999999999 801.736999999999966
-60.329999999999998 34.627000000000002 800.432000000000016
-60.335999999999999 35.027999999999999 800.351999999999975
-60.637000000000000 35.468000000000004 799.003000000000043
-60.673000000000002 35.912999999999997 798.903999999999996
-61.036999999999999 36.308000000000000 797.777000000000044
-61.350999999999999 36.682000000000002 796.163000000000011
-61.319000000000003 37.133000000000003 796.177000000000021
-61.698000000000000 37.462000000000003 794.844000000000051
-61.707999999999998 37.957999999999998 794.860999999999990
-62.067000000000000 38.365000000000002 793.875000000000000
-62.033000000000001 38.810000000000002 793.841000000000008
-62.401000000000003 39.136000000000003 792.440000000000055
-62.408000000000001 39.628000000000000 792.379000000000019
-62.731999999999999 40.000999999999998 791.009999999999991
-62.698000000000000 40.451000000000001 790.966999999999985
-63.079000000000001 40.770000000000003 789.568999999999960
